# .PCD v0.7 - Point Cloud Data file format
VERSION 0.7
FIELDS x y z descriptor multiplicity pointId
SIZE 4 4 4 4 4 4
TYPE F F F F I I
COUNT 1 1 1 128 1 1
WIDTH 131
HEIGHT 1
VIEWPOINT 0 0 0 1 0 0 0
POINTS 131
DATA ascii
0.094108693 -0.066666752 0.064000003 0 0 0 0 1 3 1 0 38 15 2 4 13 8 6 10 143 19 1 1 16 15 49 70 70 8 1 1 21 14 19 66 0 0 0 1 11 5 1 0 77 14 3 13 84 9 1 2 143 34 3 14 46 22 5 15 143 53 5 29 72 32 2 9 0 0 0 5 14 0 0 0 82 5 0 16 93 2 1 18 143 28 4 45 65 2 0 34 143 47 13 84 96 3 0 7 0 0 0 3 7 0 0 0 67 7 0 8 49 2 0 15 143 20 1 6 68 16 3 47 143 2 0 7 99 27 2 45 1 0
0.1107522 -0.062617421 0.064000003 33 8 0 1 35 6 0 2 139 49 2 6 40 7 0 3 100 27 3 11 94 31 0 2 144 26 1 0 0 1 9 22 19 5 0 1 31 7 0 2 144 40 4 3 18 14 2 20 116 9 6 12 96 69 5 19 144 10 0 0 3 3 2 23 8 2 1 3 7 2 0 1 73 73 62 11 6 2 0 3 122 54 97 36 29 5 0 14 144 25 6 1 1 1 0 34 0 1 3 1 0 0 0 0 1 4 18 7 12 7 1 1 136 41 20 3 5 7 2 12 144 72 75 17 0 0 0 3 1 0
0.03153852 -0.039265614 0.064000003 19 4 2 2 3 13 62 41 106 81 16 4 4 5 10 17 17 37 22 19 61 53 27 11 1 0 0 0 33 122 83 8 28 31 20 10 13 18 11 17 27 59 79 39 34 29 4 7 122 102 37 4 7 4 6 25 22 1 0 35 122 38 10 14 44 6 1 2 20 112 34 33 34 9 7 11 46 122 38 29 122 56 14 12 21 27 15 45 27 10 9 73 122 1 1 5 30 3 12 31 28 54 39 54 8 1 1 9 110 107 37 31 28 67 69 28 50 23 2 4 16 21 52 64 27 1 2 48 1 0
0.052400313 -0.033629484 0.064000003 15 23 12 9 0 0 4 11 71 80 30 12 0 0 2 19 59 51 22 24 26 6 2 25 7 5 2 20 62 54 23 7 3 22 23 46 16 46 33 1 33 128 74 40 5 12 27 6 128 128 41 5 4 7 8 25 30 7 9 31 95 42 11 11 1 0 2 21 35 128 86 9 18 10 7 5 9 86 128 45 128 45 33 12 3 11 39 74 18 12 40 95 47 21 28 7 3 0 2 14 14 128 97 23 2 0 3 16 65 76 50 24 17 41 61 30 22 5 8 10 20 58 61 10 4 22 47 19 1 0
0.015251351 -0.030706318 0.064000003 79 16 25 40 13 5 9 49 99 59 63 26 3 4 9 82 15 11 114 117 34 16 9 6 4 6 39 45 13 2 1 3 80 15 26 29 7 10 12 39 136 43 43 27 7 24 42 78 18 3 35 24 47 136 101 26 8 5 13 6 9 44 30 13 38 17 28 34 46 17 4 5 136 73 20 22 19 7 4 23 41 22 19 55 100 48 18 11 2 10 3 2 11 30 55 8 38 16 48 19 8 1 12 47 136 18 7 6 2 8 25 109 17 7 10 17 3 29 107 34 3 7 2 1 0 1 87 29 1 0
0.11508521 -0.017990666 0.064000003 1 0 0 13 39 1 0 0 101 1 0 2 9 1 0 15 166 11 6 7 1 0 0 76 31 6 24 68 4 2 1 13 0 0 0 2 48 7 1 0 142 8 0 0 10 6 6 14 166 18 3 4 2 12 10 32 29 3 8 17 6 71 27 14 0 0 0 0 19 20 23 15 67 4 0 0 1 4 42 117 166 79 0 0 0 4 7 66 79 40 0 0 0 106 32 11 3 1 0 0 0 7 16 14 22 32 4 0 0 0 6 34 75 166 7 0 0 0 0 6 78 166 0 0 0 17 5 2 1 0
0.073709123 -0.018283185 0.064000003 36 6 0 0 0 0 0 2 155 6 0 0 0 0 0 21 146 0 0 2 45 21 2 12 1 0 0 2 35 53 52 2 31 15 3 2 1 1 0 0 155 42 7 0 0 0 0 19 141 21 69 38 6 4 1 7 0 0 111 47 3 12 16 0 13 17 7 19 8 0 0 0 148 155 56 4 1 0 0 3 23 77 155 91 1 0 0 1 2 2 155 98 4 1 0 0 1 3 4 16 18 0 1 2 31 78 10 5 5 0 2 14 12 54 43 12 3 0 0 3 2 4 16 20 13 2 0 0 1 0
0.047546547 -0.013925758 0.064000003 17 45 133 45 16 23 1 1 108 77 87 18 0 1 4 20 30 16 6 4 16 28 43 29 27 19 6 5 6 17 133 73 44 5 4 12 35 75 6 12 133 24 2 1 5 14 15 99 48 32 11 21 108 43 27 43 21 97 102 26 18 2 6 8 18 9 4 15 6 6 2 4 133 133 34 7 5 3 2 14 26 100 61 86 129 4 1 4 25 38 26 24 38 0 0 1 0 2 1 0 1 0 0 0 5 74 24 2 3 3 5 2 20 118 42 15 11 1 4 6 17 21 4 6 10 3 19 26 1 0
0.01485962 -0.046011314 0.064000003 31 55 70 101 36 37 58 17 50 125 90 30 2 2 4 4 3 4 125 44 1 5 9 3 1 0 15 7 0 0 0 1 44 32 87 101 11 46 24 14 125 84 20 11 3 11 23 51 26 6 13 67 59 50 38 19 1 1 13 52 15 1 0 1 39 15 6 53 56 57 28 34 125 84 50 22 4 5 5 43 24 24 43 125 40 23 44 12 2 2 7 47 10 21 41 6 32 23 7 53 59 26 9 10 80 87 42 9 2 1 2 10 106 81 13 8 12 39 61 35 2 3 1 4 18 62 61 9 1 0
0.11851181 -0.031204823 0.064000003 4 0 1 9 9 1 0 2 137 2 1 4 1 0 0 117 116 1 2 0 0 6 11 144 2 2 2 1 7 144 21 15 27 1 0 13 29 0 0 4 144 9 1 2 1 0 0 98 134 15 33 43 2 0 1 62 3 36 61 21 10 20 3 2 27 5 0 2 38 4 0 0 144 96 2 1 1 0 0 6 101 40 12 42 9 11 22 10 9 17 14 9 3 5 15 24 5 2 0 0 18 15 5 7 144 61 0 0 1 2 3 29 144 93 0 0 0 17 38 16 5 11 0 2 3 50 50 10 1 0
0.070255473 -0.030809769 0.064000003 2 4 6 10 12 9 4 3 25 1 0 0 5 15 42 70 85 1 0 0 0 8 127 163 7 0 0 0 0 80 163 24 28 42 12 9 3 0 1 3 108 38 1 0 0 0 2 24 163 21 0 0 0 1 10 47 61 7 18 19 1 27 69 14 48 17 0 0 3 6 6 12 138 16 0 0 0 0 1 37 163 18 1 3 2 0 0 24 51 7 14 77 38 1 0 1 29 7 0 3 5 3 2 4 111 25 0 0 0 0 0 6 163 83 0 1 3 1 0 1 38 18 1 19 38 44 10 1 1 0
0.044143844 -0.029062092 0.064000003 57 68 22 3 0 0 1 21 74 58 7 20 35 6 1 45 16 15 5 42 96 49 12 9 32 49 20 9 5 6 6 8 40 115 43 18 7 23 29 9 115 115 9 8 14 12 7 25 19 7 14 50 112 53 10 9 4 16 45 31 21 11 4 4 23 7 2 2 10 85 115 33 115 49 28 24 7 8 29 59 11 11 32 115 76 49 23 4 7 9 60 38 16 31 4 0 1 2 16 45 115 104 30 2 24 110 90 31 13 3 8 9 11 58 87 49 24 66 37 8 1 4 27 93 35 41 5 0 1 0
0.023364387 -0.054166678 0.064000003 8 46 32 2 2 29 54 3 18 23 5 4 40 88 45 16 125 1 0 2 69 56 52 112 5 0 0 1 125 90 19 8 10 36 20 4 3 16 71 22 51 44 32 38 28 48 33 13 125 24 6 30 115 9 5 30 10 2 1 20 125 27 2 1 21 22 6 20 9 32 89 34 29 14 8 9 9 125 125 40 79 18 4 20 25 37 125 99 1 2 1 15 50 53 100 2 19 38 8 25 4 1 0 1 39 30 11 7 4 8 6 17 51 0 0 0 1 15 41 67 0 0 0 0 1 20 41 2 1 0
0.08895082 -0.045322012 0.064000003 42 1 1 3 4 3 2 32 136 1 1 1 0 0 0 136 93 7 38 27 2 33 22 80 0 21 24 5 9 136 22 0 84 13 1 1 0 0 0 41 136 37 3 3 6 3 1 71 57 21 28 52 51 30 2 14 5 59 42 13 15 22 1 1 80 54 1 0 0 0 0 3 129 136 50 3 2 1 0 2 30 136 96 19 22 16 3 3 12 16 12 9 11 26 31 8 13 38 4 0 0 1 1 1 6 112 31 7 3 1 0 0 52 136 25 4 2 1 2 3 32 115 18 34 8 7 13 3 1 0
0.079846382 -0.022730736 0.064000003 4 0 0 0 0 0 1 2 74 0 0 0 0 2 39 139 17 1 0 2 6 12 100 139 3 1 1 45 106 36 53 17 24 4 0 0 0 0 0 2 139 41 10 1 1 5 3 85 51 12 44 47 27 44 21 35 0 0 12 110 139 9 5 0 13 18 1 0 0 0 0 2 127 139 91 7 0 0 0 8 13 43 139 130 5 3 1 1 0 0 80 139 28 1 0 0 7 2 0 0 0 0 1 10 23 26 13 3 1 4 5 28 2 5 45 18 3 18 24 2 0 0 14 14 3 16 23 3 1 0
0.079846382 -0.022730736 0.064000003 0 0 0 1 6 17 14 2 0 0 0 0 1 7 18 18 0 0 0 0 0 2 17 4 0 0 0 0 0 0 1 0 18 3 3 11 9 18 19 18 91 2 1 0 2 16 135 135 8 1 1 2 2 135 135 33 0 0 0 1 26 107 46 0 76 9 3 20 17 0 0 4 135 64 6 5 1 2 14 45 36 21 28 39 22 71 54 11 0 0 3 9 135 135 15 0 29 26 4 13 6 0 0 0 100 135 41 1 1 0 0 0 9 121 125 10 6 2 2 1 1 30 33 42 119 31 3 1 1 0
0.11676233 -0.044799607 0.064000003 0 0 0 0 0 0 0 1 0 0 0 0 0 1 40 22 0 0 0 0 0 12 60 7 0 0 0 0 0 4 6 0 17 0 0 0 0 0 0 10 110 1 0 0 0 10 83 133 10 0 0 0 0 133 133 41 0 0 0 0 8 133 58 0 51 4 0 0 0 0 0 4 133 56 0 0 0 3 7 44 75 22 0 1 8 101 74 27 0 0 0 4 133 133 34 1 13 1 0 0 0 0 0 1 126 84 2 0 0 0 0 1 42 133 70 18 12 4 3 7 0 6 40 94 133 12 2 1 1 0
0.11676233 -0.044799607 0.064000003 38 0 0 0 0 0 0 21 136 2 0 0 0 0 16 136 37 10 6 11 28 27 89 120 0 0 1 17 105 75 23 2 83 16 0 0 0 0 0 2 136 50 17 5 0 0 0 29 58 24 76 136 18 0 0 8 0 0 24 136 67 1 0 0 34 48 1 0 0 0 0 0 91 136 134 14 0 0 0 1 5 19 136 136 0 0 0 0 0 0 40 97 0 0 0 0 1 5 0 0 0 0 0 0 1 14 19 1 0 0 0 0 0 1 22 10 0 0 0 0 0 0 2 2 0 0 0 0 1 0
0.061669137 -0.039042238 0.064000003 0 0 12 44 22 2 0 0 0 0 0 21 27 19 12 1 0 0 0 0 0 8 23 27 0 0 0 0 0 1 10 5 0 0 2 21 53 14 1 0 35 3 3 30 30 23 15 13 141 9 2 3 1 16 110 141 19 3 1 3 30 141 141 50 0 0 9 43 35 9 0 0 69 28 8 68 31 2 0 1 141 141 34 4 1 2 5 29 33 104 77 27 90 67 13 8 0 0 2 9 0 0 0 0 8 21 4 17 1 0 0 0 26 141 60 0 0 0 0 0 1 141 141 32 14 1 0 0 1 0
0.089585289 -0.0072824699 0 2 4 63 57 56 73 7 1 38 4 4 7 28 38 36 54 134 0 0 0 0 30 90 142 5 0 0 0 0 113 159 9 11 29 44 36 28 1 1 1 94 74 35 2 2 2 20 21 159 21 3 0 0 2 10 49 32 2 0 0 0 29 54 8 6 5 1 8 39 0 1 3 159 20 6 0 0 0 0 16 159 10 0 0 0 0 0 30 29 3 0 0 0 0 1 6 3 0 0 4 16 1 1 11 129 4 0 0 0 0 0 25 159 22 0 0 0 0 0 5 26 3 0 0 0 0 1 7 1 0
0.015926048 -0.0118513 0 80 3 0 0 4 1 1 19 187 9 0 0 1 3 6 26 29 4 1 3 23 74 25 16 71 27 1 1 14 37 4 9 78 11 0 0 0 0 0 11 187 12 0 0 2 8 7 52 61 2 0 4 90 91 17 29 31 49 7 5 50 37 2 4 65 12 1 1 2 5 4 1 187 37 3 3 3 2 1 5 88 13 10 54 77 51 2 4 9 7 4 23 57 66 3 3 34 17 12 18 4 3 1 0 187 66 3 10 5 1 0 2 66 14 19 96 60 5 0 2 0 4 24 49 17 4 1 0 1 0
0.0065519717 -0.012614625 0 61 28 1 0 9 48 35 10 3 4 2 4 7 116 116 9 27 7 2 1 2 53 116 91 19 6 8 4 5 49 53 33 43 116 35 3 9 12 9 6 33 73 72 70 15 30 33 9 116 70 17 31 27 25 54 57 6 3 7 66 72 51 24 10 35 28 9 9 27 50 9 5 106 33 24 61 26 1 1 10 116 38 42 65 40 0 1 29 3 5 35 100 110 1 0 1 2 2 18 52 17 9 4 1 75 38 25 71 8 1 1 1 70 35 64 116 29 2 0 1 23 48 57 55 19 4 2 2 1 0
0.076321639 -0.014136463 0 0 0 36 78 1 1 24 17 2 0 15 30 4 17 68 21 11 0 5 6 1 41 86 51 0 0 0 2 4 89 27 1 15 29 12 4 6 6 71 116 29 14 4 10 116 58 87 34 116 9 4 7 18 45 47 50 10 1 12 16 18 116 44 4 20 116 48 21 24 15 4 12 38 113 13 12 116 50 3 3 116 50 51 60 29 19 3 5 7 6 115 116 19 23 1 0 9 29 3 4 29 105 16 0 14 88 52 38 27 17 1 0 3 14 74 86 12 2 0 0 1 1 30 61 1 0 0 0 1 0
0.099961363 -0.024269158 0 0 20 105 27 4 1 1 0 10 42 117 25 0 1 1 1 6 32 53 13 1 2 1 0 0 11 66 3 0 3 3 0 18 26 120 104 39 1 0 2 120 62 85 21 6 1 0 59 37 23 68 71 85 18 5 17 7 40 120 23 12 26 14 1 34 15 5 41 49 26 23 19 120 36 1 6 14 2 4 70 35 3 12 82 120 16 5 9 37 10 43 75 20 25 13 15 31 4 7 24 28 31 20 33 120 2 1 9 36 4 4 107 9 1 3 99 120 43 0 7 80 39 12 39 22 19 1 17 1 0
0.016046524 -0.025789058 0 37 4 0 6 38 1 0 1 178 18 2 3 12 5 4 13 19 8 6 14 73 21 5 4 15 22 8 6 11 9 4 7 52 5 0 11 68 2 1 2 178 12 0 3 11 23 11 43 43 2 0 5 68 159 30 19 28 2 1 2 6 35 49 49 54 6 0 12 95 5 1 1 178 32 0 8 11 6 3 15 65 11 2 22 73 79 18 12 2 4 41 43 20 17 28 25 43 5 0 8 109 11 2 1 178 43 6 6 5 2 4 15 57 16 17 59 53 43 18 17 0 0 13 34 46 18 65 32 1 0
0.099592417 -0.027182445 0 15 15 105 87 5 0 0 2 73 54 49 31 22 6 0 12 3 2 81 74 48 29 20 1 44 38 87 19 4 11 14 1 42 49 27 56 44 7 8 8 122 90 2 3 33 10 1 13 14 4 9 70 122 34 13 1 94 41 18 63 19 7 8 11 30 6 2 9 42 50 41 17 122 15 1 5 29 9 6 38 25 1 1 45 122 102 3 5 84 57 6 19 30 62 9 14 19 4 3 37 85 27 13 36 122 21 2 5 21 7 3 95 14 3 0 20 116 80 7 10 29 1 0 10 23 47 33 48 1 0
0.099982068 -0.029496739 0 40 56 28 47 22 2 3 5 124 88 1 2 29 14 1 5 7 3 5 52 116 35 12 1 68 42 12 53 19 4 5 5 36 13 1 7 31 38 41 18 124 38 1 2 24 9 4 19 30 3 1 34 124 108 6 3 54 53 7 19 36 79 14 11 18 6 4 31 98 58 24 21 124 31 4 9 17 8 4 85 36 4 0 14 124 109 7 13 18 1 0 15 42 79 35 51 10 1 2 29 80 14 54 69 84 50 2 1 9 17 21 78 38 34 3 9 41 80 30 5 2 0 13 24 18 47 78 35 1 0
0.01039447 -0.029545564 0 11 13 13 11 5 11 22 29 26 7 38 97 18 45 11 21 107 4 8 23 51 23 7 70 57 0 0 2 101 25 2 21 35 48 7 1 7 19 27 34 53 7 0 3 105 112 16 15 119 5 0 0 98 40 4 39 77 13 0 1 119 44 1 5 44 19 3 2 5 6 34 61 30 5 2 7 73 55 55 25 119 18 0 0 62 51 30 22 41 31 2 1 119 88 0 0 4 41 84 3 1 22 48 28 9 36 49 5 13 42 56 55 50 23 16 9 42 58 20 7 21 17 3 3 118 119 2 3 1 0
0.016031371 -0.035355676 0 28 3 0 6 88 8 1 1 145 40 7 6 5 1 2 9 30 14 16 48 26 14 17 20 0 0 15 33 17 7 55 32 40 1 0 22 137 6 1 2 145 20 4 11 6 0 8 49 34 7 28 145 7 4 29 41 7 1 62 135 0 0 11 34 47 1 0 52 87 0 0 0 145 39 11 37 13 8 2 12 39 15 29 145 39 31 4 6 68 13 20 35 2 5 7 35 43 1 0 24 25 0 0 1 145 12 1 2 7 27 9 32 31 6 2 6 25 145 25 13 49 29 4 1 1 41 26 15 1 0
0.10413808 -0.035751987 0 15 32 71 36 41 10 5 1 40 21 13 19 34 22 26 52 32 8 6 51 55 66 22 31 104 15 10 6 3 7 6 83 111 27 15 45 35 1 2 15 111 51 19 51 44 7 2 14 68 32 17 38 111 56 6 15 33 111 100 17 27 8 2 16 32 7 8 23 31 52 79 34 111 28 20 23 25 32 91 39 23 17 37 41 87 61 54 16 6 52 33 8 39 111 35 6 11 39 111 20 12 16 23 2 65 50 38 18 4 16 68 14 4 14 55 44 6 26 67 15 1 14 47 5 2 93 54 4 1 0
0.023432769 -0.03649598 0 41 1 0 0 25 17 0 2 147 3 0 0 0 0 3 43 40 0 2 4 3 3 39 60 0 0 1 16 25 18 13 11 52 1 0 0 84 58 0 3 147 9 0 2 2 0 0 41 70 3 13 53 25 1 2 23 0 0 17 119 22 4 0 0 40 4 0 1 142 132 4 4 147 79 6 7 6 4 0 3 45 29 15 109 27 0 0 1 0 1 6 84 37 1 0 0 10 3 2 8 147 126 3 3 131 96 4 2 22 21 0 0 27 44 14 70 15 0 0 0 0 3 11 48 8 0 0 0 1 0
0.099759139 -0.039561778 0 11 23 27 51 22 28 57 19 96 9 15 14 11 38 58 49 48 7 9 68 114 9 2 13 6 29 36 26 31 6 6 3 32 66 100 48 40 6 11 7 114 48 44 13 18 10 8 50 20 9 13 51 114 57 30 17 6 23 21 6 12 37 114 19 32 8 5 16 15 13 114 49 114 16 2 15 41 8 77 89 12 22 35 75 114 32 46 12 6 64 67 3 1 7 98 20 25 57 60 8 1 1 46 19 23 53 10 12 61 11 39 23 31 17 11 13 77 24 47 23 12 16 49 9 1 9 114 24 1 0
0.099759139 -0.039561778 0 11 9 21 26 17 30 59 38 88 58 10 18 13 24 5 2 9 6 56 83 19 46 48 6 21 13 61 76 28 15 18 6 5 9 110 94 11 14 58 7 110 73 31 30 22 15 21 29 21 7 41 89 110 88 9 6 65 10 57 49 24 23 41 30 1 3 75 53 7 17 78 6 109 76 53 14 12 9 28 28 35 21 13 18 110 56 33 15 22 12 41 18 19 39 110 37 1 3 40 36 38 28 28 4 110 44 25 4 2 4 21 25 64 16 16 16 110 43 4 6 39 18 74 28 44 10 2 37 1 0
0.01607853 -0.040760629 0 46 1 0 40 67 0 0 1 152 33 10 32 10 5 1 10 29 13 28 152 31 16 2 5 56 10 19 36 1 2 4 30 68 1 0 29 29 0 0 3 152 12 1 5 11 40 14 51 37 5 2 17 40 152 30 18 77 34 4 2 1 45 29 24 74 1 0 7 8 0 0 5 152 60 8 1 1 6 5 29 37 48 21 4 12 120 39 11 10 29 15 0 1 143 71 2 63 0 0 1 1 0 0 12 152 7 2 1 0 3 11 69 30 16 12 18 29 44 28 22 1 19 62 12 24 34 10 0 1 0
0.096155271 -0.042172682 0 0 19 100 8 0 0 1 2 0 8 110 33 0 0 2 2 1 67 93 3 0 1 4 1 0 28 17 45 15 9 8 0 4 44 110 22 40 27 3 1 93 44 110 27 5 9 11 29 14 99 81 15 70 34 14 14 1 95 90 77 37 2 1 1 7 5 6 2 95 93 61 29 110 29 10 7 9 10 86 73 23 18 15 29 110 40 85 21 3 25 28 9 14 21 110 24 0 7 40 19 15 44 55 23 4 14 55 22 6 13 85 29 6 11 95 27 5 9 59 22 3 8 94 13 1 9 67 8 1 0
0.015974885 -0.046048868 0 78 5 0 10 15 0 0 0 167 63 7 2 3 26 7 15 24 29 12 4 9 167 55 7 15 37 16 0 1 94 68 4 86 2 0 3 4 0 0 7 167 32 4 1 0 4 18 67 39 35 26 14 30 59 48 26 0 20 93 13 23 69 33 0 91 1 0 0 0 0 0 11 167 28 5 7 3 3 4 19 55 14 15 68 58 34 12 9 1 4 38 15 34 57 52 2 56 0 0 0 0 2 7 20 167 19 4 10 5 2 1 12 43 10 20 84 44 11 3 5 8 15 53 30 6 7 7 2 1 0
0.0074431761 -0.063665889 0 3 10 7 8 19 43 24 5 48 6 2 0 14 99 41 44 62 0 0 2 32 110 54 57 14 2 0 3 16 60 61 51 15 7 5 10 49 17 9 58 79 10 1 0 49 64 9 53 113 24 0 3 35 70 50 51 8 1 0 6 100 86 59 32 57 9 6 9 9 6 13 78 34 13 23 19 23 84 61 60 113 41 32 20 40 27 19 92 32 5 12 31 86 38 10 47 40 14 25 24 17 4 5 39 8 22 113 107 8 5 4 5 27 103 113 43 5 1 3 16 110 25 42 45 9 1 5 24 1 0
0.016343063 -0.063833013 0 104 2 0 1 24 10 1 10 183 20 0 0 8 22 5 12 23 3 0 1 23 84 36 11 4 6 8 4 13 33 31 9 110 2 0 2 25 19 1 12 183 14 1 2 2 5 11 47 56 4 1 19 77 81 35 26 18 3 4 7 56 34 5 27 98 6 0 2 35 20 1 3 183 79 13 10 1 0 1 7 52 32 31 113 65 6 1 4 48 13 4 33 31 4 2 20 59 5 0 3 57 13 1 3 183 46 8 3 1 1 1 10 28 15 22 53 13 13 5 9 51 6 3 19 13 4 3 48 1 0
0.029039726 -0.068514414 0 3 0 0 1 30 32 6 3 47 0 0 1 6 5 14 63 5 0 0 0 0 33 66 28 2 0 0 0 0 7 30 28 27 1 0 1 113 56 10 16 137 6 0 0 24 15 21 136 30 0 0 0 2 137 62 51 7 1 0 0 1 74 31 16 41 14 5 34 137 7 0 4 137 53 0 6 33 3 3 16 95 14 1 8 8 100 30 12 0 0 0 1 1 137 59 2 16 11 3 17 115 5 1 2 137 118 1 5 31 0 0 0 122 60 3 2 2 3 17 15 1 5 4 2 7 50 31 7 1 0
0.076048225 -0.019045034 0 0 5 4 1 4 66 97 4 0 36 37 5 9 69 104 3 0 88 111 2 3 43 33 1 0 111 111 1 1 11 8 0 15 59 42 13 15 15 25 12 15 15 14 111 110 33 35 10 86 24 17 37 19 57 68 23 3 15 21 22 38 104 40 6 8 111 54 11 8 0 0 0 30 61 48 92 111 1 0 6 111 54 34 48 21 2 2 24 17 19 11 42 33 28 35 82 1 35 15 2 2 2 12 4 3 30 50 36 10 2 1 0 10 92 70 5 1 0 0 3 13 100 89 12 11 1 1 15 1 0
0.076048225 -0.019045034 0 0 0 0 2 3 31 116 3 9 1 0 0 2 29 75 23 15 3 2 3 1 34 72 48 0 0 2 2 0 44 50 1 20 8 6 56 45 46 78 23 39 7 0 3 94 83 56 37 116 24 0 1 18 52 58 59 15 1 1 1 6 109 116 11 43 80 60 40 10 2 4 25 32 33 76 27 84 58 11 34 116 41 62 16 15 17 10 60 20 17 97 31 9 9 12 6 3 32 21 0 0 31 116 3 1 21 68 9 1 12 116 1 5 33 86 7 0 18 116 3 0 7 99 12 0 18 73 0 1 0
0.11782751 -0.021626502 0 16 0 0 0 0 0 3 6 75 1 0 0 0 0 0 13 148 0 0 0 0 0 0 71 78 0 0 0 2 3 2 34 10 19 1 0 0 3 38 10 92 3 0 0 0 2 34 22 148 27 0 0 0 0 2 42 93 14 0 0 0 0 1 19 9 53 16 1 15 41 35 17 30 111 24 0 3 8 34 20 136 148 20 2 0 0 5 13 43 148 8 0 0 0 0 1 7 28 9 0 21 116 27 7 2 98 26 1 14 127 15 1 9 148 40 4 0 6 10 3 18 148 10 0 0 0 0 0 1 0
0.099033296 -0.035450898 0 8 17 8 2 7 75 64 18 45 5 10 30 17 45 40 35 102 14 14 41 35 7 8 36 26 64 24 42 48 8 2 19 16 67 77 48 15 12 11 13 69 75 47 5 7 56 64 18 25 11 24 24 27 74 75 14 1 39 23 20 61 110 14 0 37 16 20 44 34 110 38 22 110 53 34 48 9 11 15 41 9 59 110 72 16 20 10 1 0 58 84 2 12 110 13 0 4 2 3 0 1 110 60 5 16 9 6 16 17 101 79 9 0 13 52 41 55 105 27 0 16 89 78 8 3 19 25 5 1 0
0.014031738 -0.037995782 0 12 27 17 11 22 63 9 6 0 0 13 9 24 136 54 1 13 19 2 2 8 136 24 0 60 136 3 1 1 19 5 0 11 8 89 66 3 7 6 17 7 13 136 79 20 57 15 1 67 28 46 14 19 136 55 13 12 51 2 0 4 136 41 3 6 4 56 52 7 15 15 28 27 11 31 25 24 90 20 11 136 19 6 4 9 41 18 37 27 7 1 4 18 136 46 8 27 7 37 67 6 0 1 34 61 8 10 12 24 12 4 42 123 2 3 22 17 6 2 39 20 37 22 22 8 10 6 5 1 0
0.014031738 -0.037995782 0 34 34 3 0 6 71 30 7 74 40 8 14 14 22 9 7 117 43 4 10 9 22 6 5 23 10 14 17 3 16 20 36 4 17 26 11 3 57 53 4 26 16 34 86 13 22 35 10 138 50 25 46 8 2 8 18 27 11 52 138 23 1 0 3 5 30 9 4 1 59 95 7 6 4 15 52 16 73 138 12 59 12 42 138 25 17 56 27 4 3 33 138 6 0 9 7 15 13 9 47 12 6 17 36 0 3 42 138 23 8 15 4 0 0 15 138 13 3 30 54 0 0 2 24 1 0 102 90 1 0
0.09608046 -0.03882977 0 95 9 0 1 32 25 13 48 21 3 2 7 70 92 54 25 117 28 2 5 5 8 19 32 24 6 0 1 68 4 0 0 55 46 33 41 15 16 23 18 25 21 59 117 68 51 32 7 117 60 43 45 9 7 13 20 59 9 0 3 85 10 0 4 64 47 41 28 16 13 18 19 40 21 23 32 107 68 53 16 117 21 21 11 6 17 57 57 71 8 0 22 103 3 0 11 71 21 14 9 22 13 17 22 68 17 18 19 117 17 3 11 117 71 26 9 19 5 4 57 25 20 4 97 105 0 0 16 1 0
0.13259591 -0.047557253 0 5 0 0 0 25 9 1 4 29 11 0 1 60 18 1 16 139 30 0 0 1 1 1 101 71 5 1 1 120 50 6 33 11 0 0 0 15 15 1 9 83 2 0 0 55 52 3 26 139 17 2 1 1 2 3 139 41 5 4 33 139 26 8 53 22 1 0 0 4 7 1 5 62 9 2 0 38 58 3 10 139 114 131 8 4 6 1 8 18 49 139 64 98 7 0 0 26 2 0 0 0 1 0 0 13 5 3 1 27 43 1 2 5 32 92 15 35 40 0 0 24 82 82 8 4 2 0 3 1 0
0.044496302 -0.047464885 0 1 3 17 15 3 29 103 5 12 4 23 7 1 26 48 36 14 8 8 2 25 38 9 30 78 2 1 0 5 9 3 40 0 0 126 126 10 8 11 0 17 54 126 37 1 7 8 5 93 115 60 2 7 18 10 14 43 9 17 18 6 8 13 22 0 1 31 126 59 6 0 0 109 58 76 23 5 1 1 9 126 108 73 7 1 0 1 20 16 34 98 35 12 3 7 5 0 0 0 10 46 97 15 4 30 23 3 13 9 15 35 37 25 62 125 31 2 1 6 6 63 78 126 8 0 1 4 8 1 0
0.046877474 -0.050104409 0 0 18 16 27 30 29 2 0 5 9 14 13 16 21 40 25 134 45 3 0 0 1 31 31 134 33 1 10 14 6 2 12 26 55 13 3 15 25 4 7 87 13 1 0 4 13 119 134 50 2 0 0 1 13 134 118 77 4 6 19 6 9 27 88 55 20 0 4 49 34 24 15 134 37 1 0 0 1 16 76 55 38 15 2 7 10 68 27 4 4 5 19 17 25 47 12 9 0 0 0 7 32 134 71 66 2 1 1 20 16 128 134 33 40 13 5 32 10 5 10 53 33 1 0 0 5 35 16 1 0
0.046877474 -0.050104409 0 2 11 135 30 1 10 13 5 29 92 80 3 6 17 6 9 45 12 4 4 5 20 17 26 39 16 51 27 1 0 0 7 32 31 135 41 4 0 0 1 135 113 48 1 0 0 1 18 70 27 54 36 14 2 8 12 5 9 35 41 13 5 30 9 40 24 4 8 13 13 18 22 119 135 89 12 1 0 4 14 18 81 135 30 1 0 0 1 124 135 61 2 1 2 23 17 1 0 1 22 16 24 29 26 4 7 28 55 11 3 17 24 28 17 58 17 0 5 48 34 135 69 8 0 0 0 5 33 1 0
0.030835578 -0.0579262 0 16 2 1 68 49 0 0 2 148 3 1 16 7 0 0 48 140 11 0 0 2 9 12 42 1 2 0 0 39 81 8 1 41 3 2 83 41 0 0 5 148 15 0 4 2 0 0 59 133 56 0 0 1 1 1 20 3 26 3 1 29 39 1 2 51 16 5 45 5 0 0 1 148 131 1 0 0 0 0 8 61 148 10 0 0 0 1 7 8 55 3 0 3 5 5 11 20 3 1 4 0 0 43 34 136 58 0 0 0 0 20 57 35 146 4 0 0 0 5 10 5 126 10 0 0 0 0 1 1 0
0.10201221 -0.061090913 0 0 0 0 42 10 0 0 1 74 0 0 6 1 0 0 20 191 0 0 0 0 0 0 104 72 0 0 2 5 1 0 28 1 0 0 12 8 0 1 2 150 0 0 0 0 0 1 13 191 1 0 0 0 0 0 48 70 1 0 4 14 1 0 9 0 0 0 1 3 0 2 2 143 14 0 0 0 0 1 3 191 58 0 0 0 0 0 2 62 14 2 19 17 0 0 0 0 0 0 1 2 0 0 1 55 27 1 4 6 0 0 0 191 152 0 0 0 0 0 0 51 43 3 27 17 0 0 0 1 0
0.026105903 -0.06715364 0 2 0 0 30 123 7 4 4 5 0 0 0 49 56 9 10 37 0 0 0 10 12 20 96 2 0 0 0 0 40 47 23 28 5 1 24 135 3 2 9 48 5 1 25 122 24 6 15 135 3 0 3 20 18 20 117 17 0 0 0 2 135 38 26 21 12 1 24 135 2 0 1 53 22 3 53 118 0 0 1 135 64 1 7 13 3 2 10 53 7 0 0 1 68 30 11 15 9 1 26 87 0 0 1 25 15 1 29 116 1 0 0 135 110 1 5 13 0 0 1 68 53 7 0 1 5 6 5 1 0
0.084392361 -0.0053376122 0 2 7 1 4 22 22 0 0 17 93 20 1 2 2 0 8 11 47 79 22 2 0 26 69 3 7 34 11 0 0 73 137 0 0 0 2 21 15 32 4 61 3 0 0 3 22 60 38 140 45 1 0 0 1 48 140 40 28 0 0 0 0 115 140 0 0 0 4 4 12 50 8 20 5 6 47 51 84 95 15 131 140 28 8 5 6 6 14 75 140 2 0 0 0 1 9 0 0 0 4 1 0 0 0 0 1 6 56 35 13 0 0 11 78 26 10 12 13 0 0 46 140 1 0 0 0 0 0 1 0
0.08590956 -0.010201832 0 15 10 23 23 31 11 15 24 153 18 1 11 21 4 0 2 119 18 5 0 1 1 0 1 0 9 8 0 2 10 19 2 29 10 28 78 56 17 8 9 153 43 18 20 14 0 0 27 106 26 121 17 0 0 0 6 0 5 153 45 0 0 0 0 15 24 60 56 8 1 3 2 107 153 91 9 2 1 4 19 13 41 153 88 5 2 2 3 0 3 153 70 0 0 1 0 5 2 2 0 0 10 21 11 29 15 5 1 8 20 27 93 2 4 13 20 31 44 26 10 0 2 13 4 2 6 29 3 1 0
0.08590956 -0.010201832 0 1 0 1 11 16 19 6 2 57 38 3 2 4 3 16 25 41 84 49 15 6 9 28 11 21 24 27 10 19 27 12 11 5 2 15 25 33 91 21 13 85 7 1 1 6 25 106 155 17 24 12 0 0 56 155 39 2 17 26 4 1 15 155 3 19 22 32 36 25 4 1 4 155 59 3 2 2 2 13 45 111 5 0 0 0 16 118 26 3 0 1 1 0 8 155 10 23 3 2 6 25 1 0 4 155 45 0 0 0 0 0 4 134 21 0 0 0 0 0 8 5 0 4 15 18 1 1 9 1 0
0.075352833 -0.010927482 0 40 30 16 6 1 0 0 2 97 42 33 2 0 0 12 62 12 14 33 30 42 20 32 56 132 25 2 18 42 10 1 0 88 5 2 0 0 3 12 8 132 23 11 7 4 13 21 70 15 12 29 106 100 43 21 17 132 20 4 45 36 1 0 12 42 21 3 1 18 21 17 9 116 114 132 39 6 6 2 7 10 20 132 132 40 8 2 2 132 132 31 23 9 0 0 5 15 8 5 5 16 25 6 9 0 10 41 11 17 30 14 1 1 7 32 14 0 7 25 3 23 58 14 0 0 1 8 48 1 0
0.075352833 -0.010927482 0 10 7 31 16 6 2 1 4 7 9 38 15 2 9 29 27 0 3 10 22 19 30 38 3 10 3 1 2 4 6 10 6 39 2 8 25 17 0 0 12 125 14 6 3 2 22 81 125 12 4 3 12 19 125 125 23 4 0 0 0 6 92 90 18 36 3 0 5 5 9 37 36 125 125 35 8 2 9 27 24 43 78 52 39 33 47 21 21 32 3 4 4 69 66 31 46 25 1 0 0 4 30 125 125 12 35 6 0 0 125 125 23 25 93 38 4 5 59 91 6 24 49 43 8 18 18 23 20 1 0
0.11732999 -0.020396026 0 20 0 0 0 0 0 0 10 81 0 0 0 0 0 0 22 152 0 0 0 0 0 0 95 63 0 0 11 19 12 2 33 20 12 0 0 0 0 8 21 122 1 0 0 0 0 10 29 152 15 0 0 0 0 0 46 75 7 0 0 6 24 6 21 30 32 2 0 2 15 30 51 56 63 14 1 3 15 14 29 152 152 18 0 0 0 0 11 42 152 11 4 0 1 1 3 17 68 14 0 2 43 27 36 8 53 16 1 6 142 28 2 8 152 33 1 3 25 18 2 6 152 30 6 0 0 0 0 1 0
0.095433153 -0.028964326 0 20 45 103 38 8 0 0 0 12 30 106 56 22 0 0 0 69 76 61 9 2 1 1 2 16 5 0 0 69 11 2 2 117 28 14 19 53 18 3 31 66 23 12 68 125 17 1 10 125 49 9 16 12 3 1 13 45 1 0 5 103 4 0 4 73 1 0 3 47 27 22 87 39 3 1 6 120 112 25 40 125 10 1 2 10 19 19 76 45 1 0 15 125 1 0 4 28 22 21 20 8 8 19 20 19 16 27 73 34 47 12 8 125 31 17 15 5 7 8 23 31 2 0 23 125 1 0 3 1 0
0.10932524 -0.042939309 0 9 48 115 28 14 0 0 1 63 115 71 1 1 0 0 1 22 16 9 5 4 0 0 2 0 0 2 83 71 0 0 0 38 16 12 39 68 10 4 12 133 55 14 5 2 1 2 19 60 19 29 13 18 1 1 5 0 1 3 133 133 0 0 0 28 5 1 12 56 31 21 28 112 46 57 10 8 9 14 39 25 110 133 34 23 5 0 0 3 19 15 133 133 0 0 0 10 10 23 23 24 16 20 19 11 8 26 34 16 18 34 24 16 50 20 42 36 26 42 3 3 15 8 108 133 8 4 1 1 0
0.051362015 -0.053073611 0 51 53 113 40 4 1 0 1 123 81 38 6 1 2 3 11 20 17 63 30 2 3 12 11 1 1 31 59 12 13 12 1 53 31 13 15 20 25 21 13 82 123 123 9 1 0 7 8 123 104 58 7 1 8 39 34 17 1 1 2 1 79 100 12 0 1 3 25 25 15 65 32 39 15 24 7 3 4 115 69 123 123 7 1 1 1 18 50 37 81 10 14 9 18 28 4 2 3 9 6 3 4 40 41 3 4 4 6 21 13 30 11 53 123 6 4 10 4 2 2 86 123 2 2 8 5 1 1 1 0
0.029313248 -0.068161242 0 2 0 0 1 30 31 5 3 28 0 0 0 7 9 16 60 2 0 0 0 0 24 52 23 2 0 0 0 0 2 16 35 27 2 0 6 85 50 11 15 138 3 0 2 29 28 32 138 20 0 0 0 0 138 81 44 8 1 0 0 0 47 31 26 37 19 3 37 107 2 0 1 138 74 1 11 34 6 4 18 81 14 0 0 1 126 52 16 0 0 0 0 2 138 38 1 15 12 1 20 98 1 0 0 138 136 1 8 36 0 0 1 112 88 10 0 1 9 12 9 1 9 9 1 3 96 15 1 1 0
0.0063405153 -0.069670193 0 58 4 0 0 0 7 67 106 77 24 10 8 2 11 100 122 24 38 20 8 1 5 18 50 0 2 2 0 0 0 0 0 45 22 5 14 21 45 27 56 68 49 89 128 31 4 4 34 128 104 90 47 4 2 9 79 22 7 4 0 0 0 12 58 56 76 21 39 31 13 8 46 48 18 10 53 128 64 14 33 128 55 6 8 13 7 7 69 61 10 0 0 0 0 7 46 128 103 1 1 2 11 15 84 14 2 0 0 46 70 22 37 14 8 0 0 5 2 0 1 1 1 0 0 0 0 0 0 1 0
0.0059166872 -0.0053458586 0 141 18 2 0 3 2 4 141 111 56 65 19 0 0 0 60 1 1 15 8 0 0 0 0 0 0 0 0 0 0 0 0 54 26 6 7 13 19 47 141 69 84 141 86 48 32 9 15 141 40 47 23 4 3 1 36 19 1 0 0 0 0 0 5 62 34 42 36 16 13 11 34 81 13 5 10 49 141 60 37 141 28 1 2 5 37 26 44 16 2 0 0 0 0 0 2 55 126 45 3 1 1 1 2 34 85 59 6 5 27 11 7 2 1 3 1 2 12 4 1 0 0 0 0 0 0 0 0 1 0
0.08173807 -0.013362629 0 71 50 24 3 2 0 0 14 56 13 24 30 42 4 2 6 158 12 0 2 5 0 0 7 60 8 1 1 24 18 4 1 99 17 3 5 6 1 2 49 82 11 7 48 43 6 3 16 158 25 4 3 3 0 0 7 64 22 23 2 0 2 1 0 65 50 63 32 8 1 1 14 80 51 52 93 25 1 0 3 158 158 95 7 0 0 0 6 16 25 158 47 0 0 0 0 0 8 35 10 7 10 9 0 21 37 26 10 0 3 9 21 26 92 70 11 7 11 11 37 0 4 138 45 9 9 5 0 1 0
0.13093278 -0.024081878 0 0 0 0 0 0 1 6 2 14 2 0 0 6 8 22 21 40 3 0 0 3 10 119 80 26 0 0 0 1 7 46 60 0 0 0 0 3 4 4 0 91 33 3 5 10 2 5 15 152 33 0 0 31 36 65 77 54 11 0 4 63 41 31 39 0 0 0 1 14 7 4 0 143 7 3 10 43 4 0 6 152 9 1 4 49 49 0 70 96 22 0 13 136 89 2 12 0 0 0 1 24 3 1 0 123 1 1 6 46 3 1 34 152 12 0 38 53 6 0 53 68 23 8 104 128 14 0 3 1 0
0.10397003 -0.025841391 0 17 30 11 32 63 7 5 13 21 30 19 41 14 13 8 16 30 16 18 16 13 12 26 27 1 11 15 20 36 46 51 4 39 24 7 27 115 17 7 22 65 35 13 70 57 13 4 18 132 38 5 16 6 6 25 48 30 3 1 11 125 64 57 13 6 0 0 0 39 55 92 35 17 1 0 4 30 71 132 57 132 10 13 22 3 8 47 112 22 6 22 132 81 1 0 2 0 6 32 6 0 6 31 4 0 1 70 53 0 6 52 6 3 0 112 132 0 0 17 15 1 0 66 132 2 0 0 0 1 0
0.12629823 -0.029957529 0 23 10 1 1 4 1 2 4 102 17 0 0 13 16 27 32 38 8 0 2 32 23 16 26 89 5 0 0 0 0 4 137 43 4 1 3 21 2 1 1 137 9 0 3 24 25 0 26 77 20 1 15 91 63 2 8 137 61 2 1 1 1 0 17 45 1 0 2 30 3 0 13 137 11 0 20 39 3 0 39 76 22 7 83 129 8 0 3 137 58 8 3 1 1 2 24 43 6 0 0 18 6 1 7 137 18 0 4 50 8 0 24 86 2 1 11 137 22 0 17 137 1 0 0 1 4 9 78 1 0
0.075762421 -0.030877067 0 1 2 4 2 8 5 2 2 5 2 1 0 2 2 19 18 72 1 0 0 0 2 18 23 161 0 0 0 0 0 0 51 27 9 9 3 3 4 1 8 94 3 0 0 4 14 77 107 71 0 0 0 37 84 85 33 161 0 0 0 3 3 2 30 51 5 0 0 15 19 1 2 161 33 2 3 16 5 6 22 78 7 3 5 149 42 8 9 161 9 0 0 11 3 1 8 30 4 2 4 23 13 1 3 154 48 19 2 4 1 0 9 42 17 28 25 62 12 1 3 161 39 0 2 9 2 0 1 1 0
0.1314521 -0.031760015 0 0 0 0 0 3 3 3 0 88 28 2 3 10 2 1 6 132 20 0 1 36 47 11 27 97 29 0 1 34 31 3 21 0 0 0 0 13 4 2 0 132 13 1 3 40 4 0 5 132 31 0 22 61 36 1 19 98 44 5 42 92 38 1 1 0 0 0 0 15 5 0 0 121 8 0 1 38 10 1 27 132 28 0 23 110 5 0 39 132 19 5 39 132 7 0 8 0 0 0 0 7 7 1 0 82 15 0 0 26 19 2 12 132 28 0 1 65 31 2 41 120 1 0 1 116 55 1 28 1 0
0.13238204 -0.042263884 0 0 0 0 0 16 5 1 0 125 13 0 0 24 7 1 15 125 30 0 20 98 7 0 13 105 29 4 23 101 7 0 2 0 0 0 0 10 10 1 0 110 32 0 0 26 20 1 8 125 58 0 1 83 42 2 22 125 4 0 0 122 78 1 14 0 0 0 0 3 7 2 1 84 7 0 0 12 39 8 22 125 50 21 11 46 27 3 62 119 4 12 18 125 63 3 41 1 0 0 0 0 1 1 1 23 9 2 0 2 18 8 7 48 78 112 20 14 12 1 3 125 32 61 23 21 3 0 46 1 0
0.12803057 -0.047014914 0 53 15 0 0 10 9 0 2 112 45 0 2 58 25 1 2 129 24 1 1 72 50 0 3 138 17 0 0 0 2 19 23 28 10 0 0 10 23 3 3 138 45 3 2 21 30 4 22 131 9 3 7 99 97 4 17 138 12 0 0 2 3 1 17 11 1 0 0 1 13 7 5 87 70 59 14 9 11 4 8 124 40 88 42 45 12 1 20 138 6 2 1 1 1 0 59 5 4 0 0 0 1 1 1 5 9 13 5 7 37 4 1 138 28 20 4 3 26 5 16 138 38 38 28 0 0 0 11 1 0
0.073646843 -0.064181961 0 18 12 2 12 34 2 0 1 156 65 1 1 3 0 0 11 124 15 0 7 37 14 1 6 8 5 10 10 17 5 0 1 30 11 32 29 20 1 0 4 156 49 5 1 3 1 0 67 121 28 17 12 46 15 5 25 1 3 7 15 29 24 27 2 38 34 25 30 8 0 0 0 156 156 34 0 0 0 0 4 27 156 156 4 4 4 3 2 3 65 118 1 1 5 19 4 32 28 4 4 1 6 1 1 61 115 6 0 0 0 0 0 18 85 74 8 4 0 0 0 0 17 67 6 3 0 0 0 1 0
0.091858469 -0.0055628899 0 0 0 0 0 0 0 0 0 4 0 2 4 5 38 20 12 54 16 1 1 2 14 88 94 16 23 5 0 0 17 106 15 0 0 1 1 0 0 0 0 76 16 31 14 5 12 6 15 170 11 2 1 1 8 108 155 19 1 1 1 0 33 170 30 0 2 2 1 0 0 0 0 149 19 11 6 1 0 0 1 170 34 0 0 0 0 2 12 67 3 6 24 28 1 19 14 3 2 0 0 0 0 1 1 108 27 1 0 0 0 1 2 170 114 0 0 0 0 0 0 68 26 1 23 62 7 1 1 1 0
0.087050185 -0.011115157 0 62 27 9 8 4 0 0 15 157 5 7 12 8 0 0 40 157 1 0 2 27 15 2 34 2 1 0 4 39 47 53 5 55 23 40 29 4 0 0 21 157 55 20 15 2 0 0 31 137 49 101 1 1 4 2 13 0 6 130 14 1 12 28 0 19 32 62 11 2 3 3 9 110 157 84 7 3 2 3 20 14 56 157 16 4 1 0 0 0 1 157 42 0 0 0 0 5 0 0 0 0 3 3 11 11 5 7 4 12 7 5 26 0 1 44 10 16 8 1 0 0 1 55 12 5 1 0 0 1 0
0.087050185 -0.011115157 0 1 0 1 3 3 8 5 1 69 20 2 3 2 5 18 34 28 30 6 0 0 18 59 22 11 11 7 0 0 8 56 30 6 3 9 6 5 28 16 7 86 10 3 2 2 17 103 155 20 13 3 0 0 9 155 62 5 10 8 0 0 21 155 4 31 12 17 10 2 1 0 1 155 47 5 2 1 0 12 47 120 8 0 3 3 3 122 48 0 1 30 23 6 11 145 3 33 13 6 2 0 0 0 0 155 73 0 0 0 0 0 0 155 37 0 6 23 0 0 3 1 1 23 41 71 6 1 1 1 0
0.052375037 -0.021702092 0 26 32 10 2 1 20 56 10 113 39 15 2 1 11 33 42 79 71 48 39 76 13 5 17 1 1 4 18 117 117 39 2 59 71 21 5 9 3 3 10 24 69 111 37 41 14 2 6 117 117 83 11 4 3 2 9 29 6 3 50 92 40 9 7 82 65 10 4 12 8 2 7 52 24 12 19 84 94 9 19 117 53 17 25 10 15 6 46 26 8 9 117 61 0 3 10 63 26 10 3 4 23 7 4 31 25 29 57 26 10 3 3 45 83 37 25 5 3 4 20 22 10 14 46 10 1 34 117 1 0
0.026211364 -0.038164508 0 13 14 13 10 106 60 1 2 126 60 23 3 7 2 1 37 44 35 7 2 9 11 8 20 24 20 2 2 12 52 88 13 23 3 1 2 126 126 7 10 126 11 1 3 21 45 8 87 42 22 9 49 73 15 11 37 27 119 58 18 11 2 9 4 7 11 38 38 90 116 10 11 121 60 17 12 33 126 19 15 22 34 34 126 60 3 0 2 26 40 34 28 10 0 0 7 33 12 14 6 2 17 12 50 8 14 11 6 51 126 17 14 4 5 14 32 42 63 1 5 37 3 4 8 3 1 1 28 1 0
0.046939436 -0.043815114 0 5 12 8 17 5 1 2 3 77 72 18 19 5 2 1 16 45 39 14 5 28 20 13 19 5 1 1 2 33 69 59 10 1 8 8 54 29 41 34 2 32 111 60 42 14 14 40 11 124 124 39 6 2 7 14 40 39 6 11 60 113 47 14 13 1 0 8 25 29 124 124 11 12 4 4 5 10 88 124 59 124 19 23 32 7 15 62 94 17 10 23 97 36 21 38 8 33 14 43 53 9 13 8 10 38 5 1 10 61 52 40 27 2 7 58 82 66 14 8 3 8 45 124 13 1 5 19 9 1 0
0.046939436 -0.043815114 0 56 11 5 1 2 3 34 60 10 7 29 10 10 75 121 47 43 14 14 16 22 70 26 12 5 7 5 22 123 44 6 0 29 17 31 30 15 4 24 34 13 30 123 123 47 12 4 8 72 86 114 24 16 31 11 12 14 4 1 1 25 70 101 35 1 15 79 86 20 11 5 2 28 11 29 120 85 32 18 6 123 84 13 5 7 7 11 58 50 36 44 12 4 7 27 47 2 4 7 14 9 16 7 3 15 2 1 10 10 48 37 13 123 14 1 1 2 18 27 123 25 5 11 9 33 81 12 30 1 0
0.090929292 -0.045840073 0 30 2 1 14 8 0 0 4 167 11 5 2 0 0 0 99 110 17 63 68 1 0 0 48 1 62 73 37 2 1 0 0 61 3 1 12 9 3 6 8 167 14 4 3 1 5 3 30 76 12 29 31 22 43 5 10 12 28 12 11 7 13 11 5 33 2 0 0 1 3 42 35 167 91 0 0 0 2 5 32 103 60 1 0 39 79 4 5 20 10 11 6 19 35 8 8 10 8 2 0 0 0 4 8 118 127 0 0 0 0 2 9 110 167 0 0 7 24 1 1 6 16 8 5 37 72 3 1 1 0
0.086601533 -0.050661303 0 0 0 0 16 34 5 1 0 69 3 1 13 8 0 0 14 174 13 8 4 0 0 0 128 63 12 54 67 1 0 0 36 0 0 0 34 60 4 0 0 135 11 2 16 10 2 2 5 174 34 10 7 2 7 2 18 30 12 32 43 13 27 4 4 0 0 0 18 18 10 24 6 87 5 0 2 4 4 44 46 174 92 0 0 2 8 4 27 55 32 1 1 32 73 4 4 2 1 1 0 0 2 15 11 19 13 2 0 0 0 13 17 141 165 0 0 0 0 1 6 69 137 0 0 7 31 1 0 1 0
0.12728406 -0.055749867 0 60 10 0 0 4 13 4 6 137 27 9 6 40 46 5 20 157 2 2 3 22 26 5 47 93 0 0 0 14 41 19 21 21 9 2 0 1 6 9 6 95 69 95 18 16 15 4 10 157 37 35 11 8 4 1 78 81 8 87 52 0 5 6 24 5 11 1 0 1 3 1 1 75 25 8 2 5 31 11 23 157 88 102 44 0 2 3 27 13 13 157 157 7 3 0 1 0 7 2 0 0 0 0 0 16 51 13 1 1 0 1 4 20 41 86 17 0 0 0 3 0 2 44 29 5 2 0 0 1 0
0.052386779 -0.058885328 0 62 87 74 44 17 3 1 1 99 101 13 1 0 1 8 31 16 15 60 81 6 4 7 36 0 0 34 126 12 7 3 1 56 61 1 6 31 23 44 16 134 128 5 1 0 9 22 78 28 7 15 25 15 134 54 24 0 0 4 29 52 76 12 0 21 6 1 4 9 17 57 16 134 92 1 1 2 4 12 46 75 37 8 11 23 77 22 10 0 0 1 10 125 120 8 0 14 5 3 21 10 1 0 2 134 21 1 4 3 0 0 39 89 7 2 5 17 10 2 22 2 1 1 1 12 30 7 3 1 0
0.080406122 -0.0061383126 0 2 5 9 9 1 2 12 6 38 13 5 3 0 0 5 83 84 15 4 1 0 0 0 116 35 6 3 4 4 3 7 139 1 1 1 3 3 4 15 4 50 83 17 5 3 1 4 34 139 82 13 0 0 0 0 139 120 31 3 1 7 5 1 139 0 0 0 1 1 0 0 0 22 12 3 2 2 1 6 38 139 139 50 10 1 0 4 50 50 139 139 1 1 2 0 19 0 0 0 0 0 0 0 0 0 0 0 1 0 0 0 1 0 24 26 15 1 0 1 1 0 133 114 5 0 0 0 0 1 0
0.042374428 -0.034844205 0 52 30 12 8 1 1 2 31 41 18 1 3 63 43 11 43 16 11 2 6 57 81 49 14 11 4 1 1 38 37 12 8 42 117 32 32 8 11 18 6 117 117 8 7 16 29 21 32 14 3 13 51 117 85 36 11 0 9 52 22 35 33 9 1 22 14 4 6 10 85 117 36 117 38 30 41 12 10 46 74 11 8 21 117 113 60 31 3 1 12 44 20 24 61 20 6 26 3 2 33 73 39 42 13 4 29 111 86 46 8 10 6 8 54 117 24 11 39 32 16 14 3 23 22 21 49 33 83 1 0
0.11204705 -0.025866136 0 34 5 0 0 0 0 0 16 135 0 0 1 0 0 0 135 55 4 16 25 4 17 13 91 2 9 11 5 20 122 8 0 121 13 1 0 0 0 0 18 135 41 2 2 3 5 0 74 43 18 13 28 31 38 6 18 12 25 8 4 12 25 4 5 114 33 0 0 0 0 0 14 135 135 25 1 0 1 0 5 59 135 39 6 9 17 11 9 13 7 1 1 5 22 62 16 21 55 0 0 0 0 0 1 35 126 10 1 0 0 0 2 135 135 5 0 0 0 3 8 64 61 6 28 12 7 44 12 1 0
0.11204705 -0.025866136 0 22 4 0 0 0 0 0 25 15 1 0 0 0 0 9 139 1 0 1 0 0 0 91 139 1 1 3 0 15 42 121 85 51 1 0 0 0 0 2 105 139 10 0 0 1 0 4 139 27 6 22 20 29 3 21 139 11 22 36 8 37 14 11 14 133 16 1 0 0 0 0 20 139 95 4 1 1 0 1 36 57 35 9 14 40 16 9 16 26 9 3 8 30 6 6 7 96 10 1 0 0 0 1 17 139 14 1 0 0 1 5 89 68 3 1 2 7 69 30 49 5 2 1 44 38 31 17 1 1 0
0.024944725 -0.051331244 0 1 5 7 1 15 80 60 22 78 32 3 10 17 40 52 29 108 66 10 21 6 5 8 9 1 0 2 12 3 5 7 1 36 72 79 13 18 37 20 35 51 37 19 112 98 68 27 12 146 80 12 21 7 13 28 44 16 1 0 1 1 10 48 28 36 13 19 11 15 27 64 146 42 6 25 32 93 146 30 38 146 23 1 4 14 41 19 121 76 4 0 0 0 0 32 88 0 1 17 31 59 8 22 24 5 2 43 38 30 14 1 2 100 16 1 5 10 5 1 5 29 4 0 0 0 0 0 4 1 0
0.092670791 -0.016648335 0 0 0 0 0 0 0 0 0 0 0 0 0 0 0 31 18 7 0 0 0 0 9 70 30 10 2 4 18 9 11 7 8 7 1 0 0 0 0 0 1 90 3 0 0 0 2 82 139 11 0 0 0 2 132 145 59 1 1 0 3 38 145 24 0 32 16 0 0 0 0 0 0 145 91 1 1 0 1 8 39 60 33 5 5 6 76 44 21 1 1 0 0 67 145 20 4 16 32 3 0 0 0 0 0 123 145 20 0 0 0 0 0 29 145 76 0 0 2 4 6 14 67 27 22 93 61 16 10 1 0
0.11187045 -0.053351399 0 0 0 0 0 0 0 0 0 0 0 0 0 0 6 35 6 0 0 0 0 0 23 35 1 0 0 0 0 0 7 1 0 9 2 0 0 0 0 0 1 135 8 0 0 1 29 94 101 16 2 1 1 8 135 135 29 0 0 0 0 11 135 39 0 23 8 0 0 1 8 1 0 135 135 8 3 3 11 7 24 42 70 21 17 24 129 32 10 1 1 0 1 116 135 32 1 2 2 0 2 35 25 1 0 74 135 1 1 25 15 1 1 26 135 46 5 2 1 0 1 1 14 40 52 123 16 0 1 1 0
0.11187045 -0.053351399 0 62 1 0 0 0 0 0 39 137 9 0 0 0 1 6 137 17 2 4 16 76 27 26 55 0 0 2 43 137 34 3 0 99 6 0 0 0 0 0 10 137 41 14 10 3 5 6 59 32 7 20 137 130 22 11 19 6 0 2 137 109 0 3 23 37 22 0 0 0 0 0 1 137 137 92 41 1 0 0 5 9 15 99 137 28 1 0 2 24 0 1 54 14 0 1 26 2 3 0 0 0 0 0 0 4 13 6 3 0 0 0 0 0 0 3 7 0 0 0 0 0 0 0 0 0 0 0 0 1 0
0.14 -0.032364085 0.053030692 5 3 1 1 5 12 2 9 14 4 9 4 0 0 1 41 18 15 49 41 3 1 8 48 9 8 72 103 9 1 44 29 4 2 16 34 6 5 2 6 35 15 88 95 0 0 0 15 120 20 51 48 5 3 75 90 9 8 77 33 3 1 120 117 0 0 19 115 19 9 18 1 77 11 37 72 1 2 46 20 120 60 41 90 6 4 20 34 6 9 120 120 8 14 15 7 1 6 7 8 12 23 73 10 15 9 4 1 0 1 120 70 22 15 20 29 11 27 120 47 0 0 7 44 27 75 54 0 1 0
0.14 -0.039458837 0.050048754 1 1 0 37 126 19 20 4 8 1 0 46 110 10 13 30 83 3 0 4 14 3 17 126 24 0 1 77 81 3 1 30 0 0 0 25 126 34 7 0 26 37 4 13 82 54 17 18 118 107 5 9 28 4 8 59 10 4 1 49 126 7 1 5 1 7 18 126 90 18 3 0 29 16 8 13 126 53 6 5 126 30 4 16 48 11 1 16 14 3 2 59 126 9 0 3 4 15 19 73 0 0 0 0 16 24 6 9 47 13 1 3 82 47 31 6 29 12 1 11 6 11 24 11 77 49 3 8 1 0
0.14 -0.039458837 0.050048754 93 22 6 17 0 2 4 29 46 11 0 23 72 40 18 19 49 9 1 15 34 19 6 16 3 0 0 0 13 16 12 12 115 1 0 4 9 2 1 115 39 3 1 58 115 18 4 35 115 16 2 17 41 14 6 19 36 4 1 0 5 15 54 115 115 1 5 20 12 4 2 103 18 2 27 79 115 73 3 9 114 42 13 11 23 21 3 25 115 16 4 0 0 0 5 82 21 2 5 104 33 0 4 44 27 5 43 115 29 1 0 15 94 8 9 9 3 1 0 105 115 18 23 1 0 0 0 64 1 0
0.14 -0.03398516 0.013805535 0 6 47 3 2 37 80 8 0 17 108 1 4 49 100 7 0 19 111 1 1 33 81 8 0 35 111 2 0 36 38 0 22 5 4 4 22 28 61 41 21 2 2 17 111 68 63 29 86 8 3 18 37 42 86 47 7 1 1 12 35 91 87 38 32 111 86 7 8 3 0 5 28 57 62 44 111 54 1 5 92 43 50 51 39 14 1 7 56 49 45 28 22 8 8 60 0 55 52 0 0 0 0 0 0 38 111 44 7 0 0 0 2 18 98 28 3 0 0 0 6 53 106 5 0 0 0 0 1 0
0.14 -0.03398516 0.013805535 4 1 0 8 19 103 91 7 1 0 0 1 7 49 100 12 4 0 0 0 1 34 102 32 0 0 0 0 0 55 32 1 29 23 27 86 34 26 14 32 32 8 2 25 97 35 42 51 114 26 1 7 29 61 65 56 7 1 0 3 35 114 62 3 28 114 74 15 2 3 8 12 34 59 84 51 63 3 3 23 114 55 49 29 20 3 2 38 25 17 31 32 29 15 16 9 0 25 20 0 0 100 114 0 4 55 51 2 0 66 114 0 7 69 108 6 0 25 48 1 14 78 66 6 0 3 8 3 1 0
0.14 -0.03331152 0.059465673 3 0 0 0 0 0 0 6 45 0 0 0 1 3 6 115 15 4 10 32 89 16 10 56 31 76 23 24 26 0 0 0 20 1 0 0 0 0 0 7 123 17 2 4 14 9 8 98 26 7 3 25 123 74 37 34 67 30 1 7 43 45 106 21 18 4 0 0 0 0 0 1 123 111 32 33 6 0 0 4 82 85 61 123 48 14 25 15 112 43 3 1 51 72 123 34 5 1 0 0 0 0 0 2 12 16 13 33 20 0 0 3 123 23 19 64 16 0 0 21 123 13 1 1 95 33 7 44 1 0
0.14 -0.055285044 0.049909074 13 41 2 2 65 60 1 1 63 34 0 0 44 89 3 2 149 84 0 0 0 1 2 5 68 15 1 0 0 1 18 10 100 34 0 0 18 34 4 37 49 2 0 1 120 131 5 12 149 22 0 0 8 10 1 17 115 22 4 0 0 0 0 2 102 71 38 21 12 4 1 16 24 10 55 61 97 36 3 7 149 15 4 3 10 9 2 17 113 15 4 1 0 0 0 3 7 30 50 19 4 14 1 0 22 33 82 33 3 6 0 0 149 68 7 1 0 0 0 4 69 19 20 22 0 0 0 2 1 0
0.14 -0.028113171 0.036777373 12 18 19 3 0 6 5 9 87 36 24 0 0 5 2 2 193 17 1 0 0 0 0 23 42 0 0 3 8 1 7 18 34 5 0 0 1 28 12 42 120 7 1 0 3 52 10 7 193 25 0 0 0 1 2 11 67 2 0 19 39 2 2 10 49 11 2 3 4 6 1 6 62 22 4 1 2 25 19 16 193 76 0 0 0 1 4 17 89 14 0 11 71 24 4 2 31 2 1 1 12 5 1 15 19 25 3 1 6 1 1 3 193 155 0 0 0 0 0 2 108 71 0 0 5 19 13 4 1 0
0.14 -0.02735159 0.013445976 22 33 0 0 0 0 0 1 23 8 0 0 0 5 22 28 0 0 0 0 0 21 35 5 0 0 0 0 0 3 14 2 72 13 0 0 1 1 0 6 130 13 2 2 2 29 64 115 12 3 3 8 20 130 117 21 0 0 0 0 1 52 88 4 53 5 0 0 1 6 48 35 130 130 33 8 3 13 24 18 31 77 47 36 37 51 25 13 42 2 4 11 24 45 65 34 24 1 0 0 0 58 130 130 11 57 6 0 0 130 130 10 13 114 53 8 4 61 62 2 46 65 41 11 7 6 7 13 1 0
0.14 -0.051368773 0.057243895 3 1 0 1 23 10 0 1 122 52 0 1 16 9 1 7 105 45 2 18 122 26 0 1 122 77 2 9 64 18 0 2 0 0 0 0 11 17 5 2 96 88 1 0 23 28 1 5 122 114 2 3 75 76 4 19 122 28 0 0 73 114 8 15 0 0 0 0 4 12 3 0 66 13 0 0 20 51 4 9 122 83 47 20 30 22 4 34 122 13 37 35 85 50 4 23 0 0 0 0 2 1 0 0 6 5 1 2 8 18 1 1 17 48 78 23 11 22 1 1 122 56 65 25 6 7 1 4 1 0
0.14 -0.043233383 0.056726921 34 42 11 4 1 0 0 1 48 55 48 56 14 8 8 6 106 37 5 3 32 46 41 22 73 36 0 0 26 25 8 40 5 7 4 4 9 0 0 1 109 29 12 33 41 1 0 4 133 40 1 16 56 44 2 15 94 62 5 39 94 51 1 2 1 0 0 0 12 3 2 2 107 11 0 1 52 12 2 29 133 40 1 36 103 3 0 45 133 24 5 68 133 7 0 1 0 0 0 0 6 8 3 0 56 22 0 1 39 21 2 9 133 65 1 4 59 23 2 40 110 5 0 3 123 59 5 22 1 0
0.14 -0.022906151 0.055911005 28 15 0 1 37 12 0 1 132 66 0 1 3 2 1 6 57 11 10 56 26 16 3 4 42 40 86 58 3 2 1 9 30 3 1 5 43 10 0 6 132 39 4 3 11 2 0 40 64 14 14 109 120 38 24 9 67 33 39 79 24 22 108 98 15 7 2 3 17 10 2 1 119 132 43 1 4 3 2 4 14 126 132 6 25 24 22 7 22 107 124 4 2 9 79 85 3 5 1 0 1 3 1 0 6 20 11 0 0 1 1 1 0 43 54 0 0 0 0 0 0 47 76 1 0 0 0 0 1 0
0.14 -0.055149805 0.054300543 55 24 0 0 13 13 1 3 101 89 2 4 61 24 0 2 91 37 1 3 89 80 3 3 145 49 0 0 0 2 11 15 17 13 0 0 17 33 3 2 145 68 4 2 12 22 4 29 94 11 7 14 101 112 8 24 145 15 0 0 7 9 2 20 5 1 0 0 8 21 2 1 85 74 53 13 7 14 2 6 76 55 124 62 36 10 1 5 145 38 8 3 3 1 0 13 0 0 1 3 3 3 0 0 0 5 11 5 7 26 0 0 70 24 23 7 6 34 6 9 145 74 31 19 0 0 1 5 1 0
0.14 -0.030881718 0.054624554 0 3 83 120 113 5 0 0 120 28 16 48 99 11 1 12 45 14 8 106 120 17 19 13 13 0 0 10 30 14 24 32 1 25 71 76 6 0 1 1 27 63 100 68 62 4 0 2 81 63 81 34 80 32 42 30 10 2 1 20 93 52 41 18 2 18 22 2 7 8 16 10 13 11 14 14 91 76 18 15 120 34 26 55 18 17 15 43 11 5 11 115 56 2 0 1 0 59 93 0 0 2 2 1 1 73 63 11 6 30 14 3 5 4 24 104 15 8 12 9 0 0 4 48 3 0 0 0 1 0
0.14 -0.030881718 0.054624554 112 6 0 1 4 6 1 11 17 10 6 3 9 14 2 11 51 119 28 2 0 0 2 14 7 114 119 59 1 2 16 7 106 3 2 27 15 2 0 39 17 15 75 88 19 9 10 8 119 62 78 14 0 1 28 54 11 24 119 22 1 5 118 71 41 68 30 12 21 10 4 9 19 42 25 27 22 31 118 47 79 30 60 42 36 37 83 65 4 17 119 45 37 38 10 5 2 47 22 0 0 0 0 0 7 100 63 0 0 0 8 8 2 25 111 50 17 12 11 6 0 1 13 26 20 21 8 0 1 0
0.14 -0.046366356 0.053712443 25 19 2 42 133 1 0 2 75 56 5 26 58 12 8 11 6 10 2 32 131 27 2 0 14 20 2 1 2 1 0 0 17 17 3 15 133 33 0 0 133 74 3 5 49 28 1 5 20 5 0 10 133 95 1 3 21 16 2 3 16 6 0 0 9 1 2 6 133 68 6 7 133 13 0 1 55 25 4 51 30 4 0 13 133 40 0 7 32 8 0 4 31 6 0 2 2 0 0 1 131 123 9 2 56 61 1 1 33 44 2 11 16 30 2 4 133 53 2 3 11 0 0 0 26 25 13 26 1 0
0.14 -0.046366356 0.053712443 18 14 12 21 12 0 0 0 136 37 3 5 13 16 1 4 39 27 1 12 64 58 1 3 136 95 4 2 4 1 0 5 24 2 0 2 34 5 1 7 136 21 0 9 24 3 0 30 62 17 4 73 136 9 0 2 136 50 6 10 10 1 1 7 17 7 0 0 25 13 1 3 136 76 1 4 22 4 0 17 55 19 1 12 136 51 2 6 136 13 0 1 15 9 4 27 6 1 0 0 18 17 1 3 136 21 3 1 7 8 2 51 43 6 6 11 98 51 5 31 136 0 0 0 17 10 2 67 1 0
0.14 -0.042153977 0.052538984 23 29 26 24 11 8 3 3 58 23 7 7 16 25 50 22 34 9 0 0 22 21 21 28 60 6 0 0 0 1 11 137 31 16 16 26 16 0 0 0 137 25 4 8 26 23 2 11 70 38 2 15 87 58 1 7 137 90 5 1 1 1 0 30 38 2 0 3 35 3 1 14 137 11 0 22 40 3 0 49 88 17 6 96 135 10 0 3 137 51 15 4 2 1 2 14 30 9 0 0 24 8 1 6 135 46 1 8 43 7 1 23 88 6 1 17 137 28 2 10 137 2 0 0 1 5 10 53 1 0
0.14 -0.030043285 0.019138122 63 19 11 7 5 2 1 21 52 4 8 33 67 6 1 2 161 7 0 3 7 0 0 4 56 3 0 2 44 19 6 1 75 21 7 4 7 3 3 19 72 7 4 33 79 10 3 5 161 20 0 4 7 0 0 5 73 12 8 1 2 8 7 2 69 31 43 32 11 2 2 18 72 29 32 100 55 2 1 4 161 128 64 5 2 0 0 10 28 28 161 34 0 0 0 0 3 13 51 36 1 0 0 0 10 38 37 37 0 0 1 4 30 157 80 1 0 0 0 6 3 42 140 18 0 0 0 0 1 0
0.14 -0.061447583 0.053128067 44 10 0 0 10 17 2 6 129 31 6 5 42 36 3 26 151 4 2 3 32 33 7 74 129 2 1 0 18 32 22 39 19 9 3 2 9 11 1 4 86 78 103 16 17 10 1 12 151 47 40 10 11 5 2 73 112 18 83 36 4 5 0 17 0 3 8 2 4 2 0 0 63 18 19 5 13 20 6 21 151 99 100 30 0 1 2 24 18 20 151 151 3 1 0 1 0 2 2 1 2 3 1 0 18 31 10 2 3 3 1 6 22 35 75 20 0 0 0 5 0 1 41 41 4 2 0 0 1 0
0.14 -0.026453903 0.034748003 28 18 14 4 1 2 3 4 42 7 0 0 0 5 20 52 162 2 0 0 0 5 48 162 19 0 1 1 1 63 162 31 57 28 1 1 2 3 4 14 105 35 2 0 0 1 8 21 162 19 0 0 2 0 2 30 56 1 8 34 38 5 11 14 61 2 0 0 2 5 6 29 100 6 0 0 0 3 16 33 162 41 0 1 5 1 2 13 64 8 1 32 77 31 7 1 52 0 0 1 2 0 0 27 47 11 0 0 1 3 1 14 162 131 1 0 1 1 1 2 65 72 20 5 12 46 22 3 1 0
0.14 -0.012057686 0.032467339 3 2 1 0 0 0 26 21 4 2 9 8 6 58 122 40 37 7 4 9 19 50 27 14 3 3 1 7 110 55 13 6 6 11 20 19 17 9 6 8 7 18 125 119 37 17 10 10 57 56 76 23 11 30 18 13 39 1 0 0 13 47 81 125 1 9 37 87 36 12 3 1 24 10 24 106 105 27 9 4 125 86 15 5 6 6 7 37 125 56 2 0 0 1 19 91 3 7 10 18 10 22 9 5 7 1 0 10 21 67 33 7 125 19 0 0 3 15 23 114 125 15 0 0 0 9 30 74 1 0
0.14 -0.012057686 0.032467339 4 13 13 28 3 1 1 3 46 82 24 24 3 1 1 11 26 37 20 13 1 2 3 11 2 0 0 1 8 5 4 3 0 6 19 64 20 49 29 1 27 98 59 36 5 16 41 11 134 95 31 7 5 6 9 30 20 4 7 40 110 22 5 7 0 0 0 12 31 134 104 14 13 3 2 3 11 86 134 49 89 18 19 36 10 14 41 60 6 5 19 87 44 25 21 2 0 0 0 8 15 134 134 13 0 0 0 13 71 134 120 14 1 7 55 60 52 28 5 2 3 25 93 14 2 13 20 3 1 0
0.14 -0.059403002 0.031488359 3 0 8 32 0 0 0 2 119 4 9 11 0 0 0 139 117 3 3 0 0 4 4 148 4 3 3 1 44 123 8 21 29 1 2 19 11 0 0 5 148 11 3 4 0 0 0 116 118 23 63 57 4 1 0 61 3 58 76 29 17 25 1 2 30 8 0 3 19 1 0 1 148 90 4 5 1 1 1 7 75 30 17 48 14 27 14 5 12 35 22 11 5 9 11 8 7 2 0 0 8 11 14 9 148 93 0 0 0 1 7 17 95 108 0 0 2 44 12 4 3 6 4 5 8 46 9 4 1 0
0.14 -0.052763764 0.025482461 18 1 0 9 10 0 0 3 158 4 1 1 0 0 0 108 133 13 44 40 2 1 0 76 6 77 65 23 2 2 1 3 36 1 0 3 11 7 14 11 158 6 1 0 0 2 4 55 113 7 12 21 16 48 10 19 16 26 10 9 7 18 14 9 19 1 0 0 1 6 40 26 158 86 0 0 0 1 6 31 151 71 0 0 20 70 4 5 3 3 8 6 25 43 5 5 17 7 0 0 0 0 4 17 102 86 0 0 1 5 17 25 129 158 0 0 7 18 1 1 9 24 2 2 25 71 9 5 1 0
0.14 -0.056927003 0.022294434 2 1 0 12 20 0 0 1 63 2 1 8 8 0 0 14 176 7 4 2 0 0 0 131 74 13 47 46 2 0 0 43 1 0 0 5 36 8 1 1 122 6 1 4 10 3 5 8 176 20 4 3 1 4 3 24 48 8 14 32 12 35 9 7 3 1 0 0 10 28 21 4 68 3 0 0 2 7 50 43 176 102 0 0 0 3 4 26 83 43 0 0 14 73 7 5 7 13 0 0 0 2 6 3 21 9 0 0 0 0 11 20 135 140 0 0 0 1 7 14 89 172 0 0 5 22 1 0 1 0
0.14 -0.011712136 0.016121246 5 15 72 127 127 4 0 1 127 52 127 32 9 0 0 33 80 55 24 5 3 1 2 26 16 18 5 15 32 52 35 8 19 1 8 54 119 15 0 4 127 12 1 4 15 4 1 98 69 15 8 52 39 6 9 62 57 108 29 20 8 4 14 7 12 2 0 3 107 20 0 1 127 116 12 8 22 7 0 7 42 53 38 127 29 1 0 3 3 80 65 37 5 0 0 0 1 1 0 6 65 8 0 0 41 80 8 2 26 11 0 0 11 54 30 55 5 0 0 0 0 7 9 12 1 0 0 0 1 0
0.14 -0.038879335 0.041750479 28 0 0 0 0 1 2 82 136 0 0 1 1 0 0 136 61 2 11 31 9 28 19 83 0 10 10 8 11 136 16 0 79 7 1 0 0 0 0 56 136 45 3 1 5 4 1 86 45 20 14 28 60 40 2 18 4 32 12 6 18 28 1 1 64 25 8 1 0 0 3 20 124 136 44 2 1 1 0 5 45 136 67 11 19 16 8 7 17 12 3 2 9 35 64 12 6 39 27 8 0 0 0 2 11 127 22 4 1 0 0 1 108 136 12 2 1 0 2 5 55 100 14 36 15 9 23 6 1 0
0.14 -0.038879335 0.041750479 6 2 0 0 0 5 23 26 4 0 0 0 0 2 75 67 0 0 0 0 0 1 134 116 0 0 0 0 4 29 134 69 51 16 2 0 0 3 18 46 102 7 0 1 1 0 44 134 17 5 14 26 12 2 133 134 3 17 30 11 37 17 80 35 120 15 4 1 0 0 1 25 134 55 7 4 1 1 3 63 43 23 17 59 37 4 4 19 32 17 15 21 40 0 0 6 86 15 1 0 0 0 3 51 134 4 1 1 4 12 11 134 14 3 2 9 43 58 12 21 15 6 5 87 25 6 2 2 1 0
0.14 -0.0064306566 0.027665135 37 31 20 4 0 1 59 125 21 17 21 2 2 7 125 76 68 95 81 27 10 2 14 43 5 89 125 38 1 0 0 0 68 93 41 0 0 0 0 13 125 46 24 2 14 16 13 88 14 5 48 57 125 125 28 28 14 28 125 37 19 46 44 30 30 4 0 0 0 0 0 2 125 25 3 4 9 4 1 15 16 11 4 9 73 125 45 7 3 0 1 4 27 125 86 31 0 0 0 0 0 0 0 0 0 0 0 0 0 0 0 0 0 0 0 2 5 4 4 2 0 1 4 15 29 15 3 2 1 0
0.14 -0.0064306566 0.027665135 33 39 20 10 0 4 6 21 30 33 7 2 0 0 1 20 0 0 0 0 0 0 0 0 0 0 0 0 0 0 0 0 32 128 55 38 6 15 20 5 128 128 15 6 11 4 6 23 15 2 2 42 84 7 4 8 0 0 0 6 6 0 0 0 22 13 4 5 11 115 128 30 128 37 30 48 15 14 43 66 10 6 19 128 128 40 6 1 0 0 0 21 43 35 1 0 0 0 2 20 113 128 114 1 2 22 95 67 60 24 10 4 1 23 105 46 30 71 17 1 0 0 18 79 47 57 3 0 1 0
0.14 -0.031584568 0.026943939 32 0 0 0 0 0 1 26 71 0 0 0 0 1 19 144 37 5 0 0 3 4 38 144 20 15 8 70 46 12 39 30 87 27 3 0 0 0 0 9 144 75 12 0 0 1 1 70 70 21 71 24 7 15 20 53 3 2 35 130 120 6 4 11 17 45 25 3 0 0 0 8 87 144 88 2 0 0 0 10 14 63 144 56 1 1 1 2 0 5 144 128 12 0 0 0 19 5 2 1 0 0 0 12 21 19 14 4 3 7 2 14 2 12 68 9 4 11 7 2 1 12 49 4 1 0 1 1 1 0
0.14 -0.031584568 0.026943939 2 1 0 0 0 12 19 5 25 3 0 0 0 8 17 45 3 0 0 0 0 9 87 27 0 0 0 0 1 26 32 0 14 4 4 7 2 14 21 19 88 2 0 0 0 10 87 144 12 0 0 1 1 71 144 75 0 0 0 1 19 144 71 0 69 9 4 11 7 2 2 12 144 55 1 1 1 2 14 63 71 23 7 15 20 53 70 21 0 0 3 4 39 144 37 5 49 4 1 0 1 1 1 12 144 128 12 0 0 0 0 5 35 130 119 6 4 11 3 2 8 69 45 12 39 30 20 15 1 0
0.14 -0.058676805 0.041497625 0 0 0 0 0 0 0 0 1 0 0 0 0 2 33 10 0 0 0 0 0 13 38 3 0 0 0 0 0 5 3 0 17 3 0 0 0 0 0 3 129 6 0 0 0 19 89 121 12 1 0 0 3 129 129 29 0 0 0 0 8 105 60 1 36 17 1 0 0 0 0 1 129 129 4 1 1 6 8 30 47 57 11 5 15 119 45 11 2 1 0 5 129 129 35 1 16 8 1 0 0 0 0 2 111 129 3 0 0 0 0 2 33 129 67 9 6 1 0 0 2 10 43 88 129 7 0 0 1 0
0.14 -0.058676805 0.041497625 36 8 0 0 0 0 4 20 137 11 0 1 0 0 20 137 23 3 3 20 51 30 57 78 0 0 0 31 137 70 8 0 76 13 0 0 0 0 0 3 137 49 14 7 2 2 2 43 43 10 26 137 82 9 3 17 0 0 5 137 116 0 0 0 26 27 0 0 0 0 0 0 108 137 106 31 0 0 0 4 8 17 135 137 18 1 0 1 0 0 7 105 16 1 0 0 1 3 0 0 0 0 0 0 2 13 12 4 0 0 0 0 0 0 8 14 1 0 0 0 0 0 0 1 1 0 0 0 1 0
0.14 -0.018060153 0.037264589 0 0 0 0 0 0 0 0 1 0 0 0 0 5 29 13 6 0 0 0 0 3 71 118 0 0 0 0 1 45 86 22 0 0 0 0 0 0 0 0 68 4 4 5 0 4 16 31 140 20 1 0 0 10 107 140 16 6 1 0 18 140 140 42 1 1 1 0 0 0 0 0 117 16 3 2 0 0 0 6 140 140 41 0 0 2 3 16 19 140 117 15 37 80 8 4 0 0 0 0 0 0 0 0 29 6 0 0 0 0 0 1 27 74 44 0 0 0 0 0 0 82 140 15 3 0 0 0 1 0
0 -0.061138801 0.051038567 54 139 1 0 0 4 27 11 13 52 1 0 6 59 67 13 51 5 1 2 24 47 15 14 56 15 7 23 9 1 7 28 48 139 0 0 4 17 2 15 139 139 2 2 6 43 13 33 46 6 3 15 29 111 49 23 27 4 3 40 40 6 11 17 23 11 0 6 24 21 29 139 139 37 35 39 1 2 5 139 24 8 75 94 13 13 6 6 9 2 20 41 15 2 3 5 0 0 6 48 18 2 44 139 3 8 62 96 4 0 4 37 5 31 83 23 0 0 0 1 15 27 24 2 0 0 2 12 1 0
0 -0.015965257 0.049024329 0 16 66 2 4 52 52 0 5 17 31 0 0 19 116 8 6 7 4 0 0 13 106 25 0 0 0 2 6 22 69 6 0 60 134 4 9 18 15 1 17 134 134 1 2 2 15 1 76 134 50 9 6 8 34 5 5 11 10 69 38 14 19 1 0 3 14 31 118 43 21 5 119 47 37 6 20 1 0 23 134 59 6 14 11 0 0 45 11 8 4 42 79 7 0 1 2 0 0 46 121 0 0 1 134 1 0 4 9 0 0 42 134 13 22 21 6 0 0 38 1 2 20 33 22 4 0 0 1 0
