# .PCD v0.7 - Point Cloud Data file format
VERSION 0.7
FIELDS x y z rgb
SIZE 4 4 4 4
TYPE F F F F
COUNT 1 1 1 1
WIDTH 1339
HEIGHT 1
VIEWPOINT 0 0 0 1 0 0 0
POINTS 1339
DATA ascii
0.022 0 0.063000001 1.6318624e-38
0.022 0 0.061999999 1.6501225e-38
0.022 0 0.061000001 1.6870356e-38
0.022 0 0.059999999 1.6687042e-38
0.022 0 0.059 1.6410822e-38
0.022 0 0.057999998 1.6226434e-38
0.022 0 0.057 1.668669e-38
0.022 0 0.056000002 1.668669e-38
0.022 0 0.055 1.6503018e-38
0.022 0 0.054000001 1.6779602e-38
0.022 0 0.052999999 1.6411185e-38
0.022 0 0.052000001 1.6778163e-38
0.022 0 0.050999999 1.6503371e-38
0.022 0 0.050000001 1.678067e-38
0.022 0 0.048999999 1.5305914e-38
0.022 0 0.048 1.6411175e-38
0.022 0 0.046999998 1.1897187e-38
0.022 0 0.046 1.4847087e-38
0.022 0 0.045000002 1.6503018e-38
0.022 0 0.044 1.6226784e-38
0.022 0 0.043000001 1.6687409e-38
0.022 0 0.041999999 1.6963277e-38
0.022 0 0.041000001 1.7239864e-38
0.022 0 0.039999999 1.6503018e-38
0.022 0 0.039000001 1.6778886e-38
0.022 0 0.037999999 1.6779605e-38
0.022 0 0.037 1.1341119e-38
0.022 0 0.035999998 1.4382151e-38
0.022 0 0.035 1.6963277e-38
0.022 0 0.034000002 1.6778889e-38
0.022 0 0.033 1.6043105e-38
0.022 0 0.032000002 1.0880504e-38
0.022 0 0.030999999 1.6133142e-38
0.022 0 0.029999999 1.5765793e-38
0.022 0 0.028999999 1.1526575e-38
0.022 0 0.028000001 1.0973048e-38
0.022 0 0.027000001 1.4566544e-38
0.022 0 0.026000001 1.6409369e-38
0.022 0 0.025 1.2816612e-38
0.022 0 0.024 1.0235132e-38
0.022 0 0.023 1.6318259e-38
0.022 0 0.022 1.6410455e-38
0.022 0 0.021 9.4060786e-39
0.022 0 0.02 7.376351e-39
0.022 0 0.018999999 1.6685967e-38
0.022 0 0.017999999 1.7514284e-38
0.022 0 0.017000001 1.2354555e-38
0.022 0 0.016000001 1.0234055e-38
0.022 0 0.015 1.6871062e-38
0.022 0 0.014 1.6779591e-38
0.022 0 0.013 1.6778151e-38
0.022 0 0.012 1.7606111e-38
0.022 0 0.011 1.7514992e-38
0.022 0 0.0099999998 1.7331325e-38
0.022 0 0.0089999996 1.7791947e-38
0.022 0 0.0080000004 1.7701195e-38
0.022 0 0.0070000002 1.7791952e-38
0.022 0 0.0060000001 1.7792317e-38
0.022 0 0.0049999999 1.7607205e-38
0.022 0 0.0040000002 1.7515725e-38
0.022 0 0.003 1.7882349e-38
0.022 0 0.0020000001 1.7330969e-38
0.022 0 0.001 1.7054385e-38
0.021 0 0.064000003 1.0246314e-38
0.021 0 0.063000001 1.6318264e-38
0.021 0 0.061999999 1.6226431e-38
0.021 0 0.061000001 1.6870358e-38
0.021 0 0.059999999 1.6595211e-38
0.021 0 0.059 1.6502302e-38
0.021 0 0.057999998 1.6503018e-38
0.021 0 0.057 1.6777447e-38
0.021 0 0.056000002 1.6503385e-38
0.021 0 0.055 1.6595932e-38
0.021 0 0.054000001 1.6686693e-38
0.021 0 0.052999999 1.6777447e-38
0.021 0 0.052000001 1.6687412e-38
0.021 0 0.050999999 1.3183958e-38
0.021 0 0.050000001 7.1962828e-39
0.021 0 0.048999999 1.3919745e-38
0.021 0 0.048 1.659486e-38
0.021 0 0.046999998 9.7756024e-39
0.021 0 0.046 6.1778233e-39
0.021 0 0.045000002 1.6687057e-38
0.021 0 0.044 1.6595213e-38
0.021 0 0.043000001 1.6595213e-38
0.021 0 0.041999999 1.6687409e-38
0.021 0 0.041000001 1.6687409e-38
0.021 0 0.039999999 1.6871797e-38
0.021 0 0.039000001 1.6688128e-38
0.021 0 0.037999999 1.6411538e-38
0.021 0 0.037 1.2169085e-38
0.021 0 0.035999998 1.6691365e-38
0.021 0 0.035 1.7424974e-38
0.021 0 0.034000002 1.68718e-38
0.021 0 0.033 1.779374e-38
0.021 0 0.032000002 1.7150182e-38
0.021 0 0.030999999 1.6778886e-38
0.021 0 0.029999999 1.6963996e-38
0.021 0 0.028999999 1.4566542e-38
0.021 0 0.028000001 1.6966151e-38
0.021 0 0.027000001 1.6503021e-38
0.021 0 0.026000001 1.6226428e-38
0.021 0 0.025 1.5859439e-38
0.021 0 0.024 1.7427132e-38
0.021 0 0.023 1.6687409e-38
0.021 0 0.022 1.6598804e-38
0.021 0 0.021 1.5121137e-38
0.021 0 0.02 1.3738568e-38
0.021 0 0.018999999 1.6503369e-38
0.021 0 0.017999999 1.6779252e-38
0.021 0 0.017000001 1.6780661e-38
0.021 0 0.016000001 1.0050024e-38
0.021 0 0.015 1.7053657e-38
0.021 0 0.014 1.6962908e-38
0.021 0 0.013 1.6962191e-38
0.021 0 0.012 1.7331321e-38
0.021 0 0.011 1.7423169e-38
0.021 0 0.0099999998 1.7423881e-38
0.021 0 0.0089999996 1.8251851e-38
0.021 0 0.0080000004 1.7516804e-38
0.021 0 0.0070000002 1.7884147e-38
0.021 0 0.0060000001 1.7792317e-38
0.021 0 0.0049999999 1.7608998e-38
0.021 0 0.0040000002 1.7791947e-38
0.021 0 0.003 1.7697957e-38
0.021 0 0.0020000001 1.7515365e-38
0.021 0 0.001 1.7237699e-38
0.02 0 0.064000003 1.0704407e-38
0.02 0 0.063000001 1.6685967e-38
0.02 0 0.061999999 1.6410103e-38
0.02 0 0.061000001 1.6594495e-38
0.02 0 0.059999999 1.6870358e-38
0.02 0 0.059 1.6779607e-38
0.02 0 0.057999998 1.6319343e-38
0.02 0 0.057 1.6502299e-38
0.02 0 0.056000002 1.668597e-38
0.02 0 0.055 1.6779605e-38
0.02 0 0.054000001 1.6686693e-38
0.02 0 0.052999999 1.668669e-38
0.02 0 0.052000001 1.6503021e-38
0.02 0 0.050999999 1.6226434e-38
0.02 0 0.050000001 1.2909546e-38
0.02 0 0.048999999 1.6226797e-38
0.02 0 0.048 1.6502665e-38
0.02 0 0.046999998 1.6687409e-38
0.02 0 0.046 8.6667381e-39
0.02 0 0.045000002 1.6687776e-38
0.02 0 0.044 1.6870361e-38
0.02 0 0.043000001 1.6503018e-38
0.02 0 0.041999999 1.7332778e-38
0.02 0 0.041000001 1.6226431e-38
0.02 0 0.039999999 1.668669e-38
0.02 0 0.039000001 1.6963643e-38
0.02 0 0.037999999 1.6595213e-38
0.02 0 0.037 1.1892143e-38
0.02 0 0.035999998 1.0420617e-38
0.02 0 0.035 1.6318989e-38
0.02 0 0.034000002 1.6687775e-38
0.02 0 0.033 9.3146243e-39
0.02 0 0.032000002 1.3001003e-38
0.02 0 0.030999999 1.3645319e-38
0.02 0 0.029999999 1.6688125e-38
0.02 0 0.028999999 6.1796169e-39
0.02 0 0.028000001 1.0510651e-38
0.02 0 0.027000001 1.6871803e-38
0.02 0 0.026000001 1.6779605e-38
0.02 0 0.025 1.4106284e-38
0.02 0 0.024 1.0144385e-38
0.02 0 0.023 1.6871084e-38
0.02 0 0.022 1.6412264e-38
0.02 0 0.021 1.0880138e-38
0.02 0 0.02 1.0418444e-38
0.02 0 0.018999999 1.6962557e-38
0.02 0 0.017999999 1.6871433e-38
0.02 0 0.017000001 1.6687758e-38
0.02 0 0.016000001 1.7702263e-38
0.02 0 0.015 1.7145852e-38
0.02 0 0.014 1.7238048e-38
0.02 0 0.013 1.6963259e-38
0.02 0 0.012 1.7054736e-38
0.02 0 0.011 1.714765e-38
0.02 0 0.0099999998 1.7514638e-38
0.02 0 0.0089999996 1.7700471e-38
0.02 0 0.0080000004 1.7791596e-38
0.02 0 0.0070000002 1.7974911e-38
0.02 0 0.0060000001 1.7792669e-38
0.02 0 0.0049999999 1.6687046e-38
0.02 0 0.0040000002 1.7606836e-38
0.02 0 0.003 1.7239495e-38
0.02 0 0.0020000001 1.7239495e-38
0.02 0 0.001 1.7054382e-38
0.018999999 0 0.064000003 1.0887003e-38
0.018999999 0 0.063000001 1.6318624e-38
0.018999999 0 0.061999999 1.6685967e-38
0.018999999 0 0.061000001 1.6410103e-38
0.018999999 0 0.059999999 1.6503369e-38
0.018999999 0 0.059 1.6687406e-38
0.018999999 0 0.057999998 1.6319345e-38
0.018999999 0 0.057 1.6595213e-38
0.018999999 0 0.056000002 1.6778166e-38
0.018999999 0 0.055 1.6779607e-38
0.018999999 0 0.054000001 1.6779607e-38
0.018999999 0 0.052999999 1.6871081e-38
0.018999999 0 0.052000001 1.7054396e-38
0.018999999 0 0.050999999 1.6594495e-38
0.018999999 0 0.050000001 1.6503737e-38
0.018999999 0 0.048999999 1.6502665e-38
0.018999999 0 0.048 1.6410103e-38
0.018999999 0 0.046999998 1.6595213e-38
0.018999999 0 0.046 1.6134238e-38
0.018999999 0 0.045000002 1.6503018e-38
0.018999999 0 0.044 1.6779607e-38
0.018999999 0 0.043000001 1.6687409e-38
0.018999999 0 0.041999999 1.6687046e-38
0.018999999 0 0.041000001 1.6779253e-38
0.018999999 0 0.039999999 1.6595932e-38
0.018999999 0 0.039000001 1.6595581e-38
0.018999999 0 0.037999999 1.6595211e-38
0.018999999 0 0.037 1.6502299e-38
0.018999999 0 0.035999998 1.6963999e-38
0.018999999 0 0.035 1.6226428e-38
0.018999999 0 0.034000002 1.6962557e-38
0.018999999 0 0.033 1.6503385e-38
0.018999999 0 0.032000002 1.6687409e-38
0.018999999 0 0.030999999 1.6687409e-38
0.018999999 0 0.029999999 1.6779605e-38
0.018999999 0 0.028999999 1.6963277e-38
0.018999999 0 0.028000001 1.6688128e-38
0.018999999 0 0.027000001 1.7055473e-38
0.018999999 0 0.026000001 1.6687409e-38
0.018999999 0 0.025 1.6596655e-38
0.018999999 0 0.024 1.6594497e-38
0.018999999 0 0.023 1.7239144e-38
0.018999999 0 0.022 1.7056192e-38
0.018999999 0 0.021 1.6501573e-38
0.018999999 0 0.02 1.6226414e-38
0.018999999 0 0.018999999 1.7147671e-38
0.018999999 0 0.017999999 1.7239141e-38
0.018999999 0 0.017000001 1.6871789e-38
0.018999999 0 0.016000001 1.6963979e-38
0.018999999 0 0.015 1.7147297e-38
0.018999999 0 0.014 1.7423887e-38
0.018999999 0 0.013 1.7517153e-38
0.018999999 0 0.012 1.7792299e-38
0.018999999 0 0.011 1.7332041e-38
0.018999999 0 0.0099999998 1.7146578e-38
0.018999999 0 0.0089999996 1.7790873e-38
0.018999999 0 0.0080000004 1.733206e-38
0.018999999 0 0.0070000002 1.7976706e-38
0.018999999 0 0.0060000001 1.7146942e-38
0.018999999 0 0.0049999999 1.7515725e-38
0.018999999 0 0.0040000002 1.7514286e-38
0.018999999 0 0.003 1.7791227e-38
0.018999999 0 0.0020000001 1.7699029e-38
0.018999999 0 0.001 1.7513567e-38
0.017999999 0 0.064000003 9.7842456e-39
0.017999999 0 0.063000001 1.6593774e-38
0.017999999 0 0.061999999 1.6593053e-38
0.017999999 0 0.061000001 1.6318978e-38
0.017999999 0 0.059999999 1.6502299e-38
0.017999999 0 0.059 1.6502299e-38
0.017999999 0 0.057999998 1.6778163e-38
0.017999999 0 0.057 1.6778889e-38
0.017999999 0 0.056000002 1.6503018e-38
0.017999999 0 0.055 1.5949481e-38
0.017999999 0 0.054000001 1.696328e-38
0.017999999 0 0.052999999 1.6502299e-38
0.017999999 0 0.052000001 1.6870358e-38
0.017999999 0 0.050999999 1.6685967e-38
0.017999999 0 0.050000001 1.6595213e-38
0.017999999 0 0.048999999 1.6595211e-38
0.017999999 0 0.048 1.6411541e-38
0.017999999 0 0.046999998 1.6595927e-38
0.017999999 0 0.046 1.6595932e-38
0.017999999 0 0.045000002 1.6962201e-38
0.017999999 0 0.044 1.6502665e-38
0.017999999 0 0.043000001 1.6594495e-38
0.017999999 0 0.041999999 1.6594495e-38
0.017999999 0 0.041000001 1.68718e-38
0.017999999 0 0.039999999 1.6871081e-38
0.017999999 0 0.039000001 1.6595213e-38
0.017999999 0 0.037999999 1.6411185e-38
0.017999999 0 0.037 1.6687046e-38
0.017999999 0 0.035999998 1.6779242e-38
0.017999999 0 0.035 1.6595929e-38
0.017999999 0 0.034000002 1.6687412e-38
0.017999999 0 0.033 1.6133519e-38
0.017999999 0 0.032000002 1.6503018e-38
0.017999999 0 0.030999999 1.6779605e-38
0.017999999 0 0.029999999 1.6962201e-38
0.017999999 0 0.028999999 1.6503737e-38
0.017999999 0 0.028000001 1.6595932e-38
0.017999999 0 0.027000001 1.6687409e-38
0.017999999 0 0.026000001 1.6779972e-38
0.017999999 0 0.025 1.7147668e-38
0.017999999 0 0.024 1.696328e-38
0.017999999 0 0.023 1.7147668e-38
0.017999999 0 0.022 1.7055473e-38
0.017999999 0 0.021 1.7330618e-38
0.017999999 0 0.02 1.696219e-38
0.017999999 0 0.018999999 1.7149103e-38
0.017999999 0 0.017999999 1.7607923e-38
0.017999999 0 0.017000001 1.7607556e-38
0.017999999 0 0.016000001 1.7607556e-38
0.017999999 0 0.015 1.7332413e-38
0.017999999 0 0.014 1.7976703e-38
0.017999999 0 0.013 1.779195e-38
0.017999999 0 0.012 1.7423168e-38
0.017999999 0 0.011 1.7514638e-38
0.017999999 0 0.0099999998 1.7054738e-38
0.017999999 0 0.0089999996 1.7423529e-38
0.017999999 0 0.0080000004 1.7423532e-38
0.017999999 0 0.0070000002 1.7790517e-38
0.017999999 0 0.0060000001 1.7146581e-38
0.017999999 0 0.0049999999 1.7423887e-38
0.017999999 0 0.0040000002 1.7697957e-38
0.017999999 0 0.003 1.7607556e-38
0.017999999 0 0.0020000001 1.7238777e-38
0.017999999 0 0.001 1.6592681e-38
0.017000001 0 0.064000003 9.6931374e-39
0.017000001 0 0.063000001 1.3279405e-38
0.017000001 0 0.061999999 1.3923695e-38
0.017000001 0 0.061000001 1.5121876e-38
0.017000001 0 0.059999999 1.5675052e-38
0.017000001 0 0.059 1.6042758e-38
0.017000001 0 0.057999998 1.6872519e-38
0.017000001 0 0.057 1.6688125e-38
0.017000001 0 0.056000002 1.6410456e-38
0.017000001 0 0.055 1.6412617e-38
0.017000001 0 0.054000001 1.6317182e-38
0.017000001 0 0.052999999 1.6318624e-38
0.017000001 0 0.052000001 1.6502655e-38
0.017000001 0 0.050999999 1.6502655e-38
0.017000001 0 0.050000001 1.6687406e-38
0.017000001 0 0.048999999 1.6963633e-38
0.017000001 0 0.048 1.6318629e-38
0.017000001 0 0.046999998 1.6411541e-38
0.017000001 0 0.046 1.6318626e-38
0.017000001 0 0.045000002 1.668669e-38
0.017000001 0 0.044 1.6595929e-38
0.017000001 0 0.043000001 1.6595213e-38
0.017000001 0 0.041999999 1.6317908e-38
0.017000001 0 0.041000001 1.6410819e-38
0.017000001 0 0.039999999 1.6686693e-38
0.017000001 0 0.039000001 1.6595211e-38
0.017000001 0 0.037999999 1.6687043e-38
0.017000001 0 0.037 1.68718e-38
0.017000001 0 0.035999998 1.6687409e-38
0.017000001 0 0.035 1.6595932e-38
0.017000001 0 0.034000002 1.6595216e-38
0.017000001 0 0.033 1.6319343e-38
0.017000001 0 0.032000002 1.6872516e-38
0.017000001 0 0.030999999 1.6779242e-38
0.017000001 0 0.029999999 1.6134232e-38
0.017000001 0 0.028999999 1.6687762e-38
0.017000001 0 0.028000001 1.6779239e-38
0.017000001 0 0.027000001 1.6963999e-38
0.017000001 0 0.026000001 1.6963993e-38
0.017000001 0 0.025 1.6595216e-38
0.017000001 0 0.024 1.6963993e-38
0.017000001 0 0.023 1.7239493e-38
0.017000001 0 0.022 1.7148387e-38
0.017000001 0 0.021 1.6871084e-38
0.017000001 0 0.02 1.7609002e-38
0.017000001 0 0.018999999 1.724058e-38
0.017000001 0 0.017999999 1.7607207e-38
0.017000001 0 0.017000001 1.7423169e-38
0.017000001 0 0.016000001 1.7331339e-38
0.017000001 0 0.015 1.7607921e-38
0.017000001 0 0.014 1.7792669e-38
0.017000001 0 0.013 1.7515365e-38
0.017000001 0 0.012 1.7332415e-38
0.017000001 0 0.011 1.7329882e-38
0.017000001 0 0.0099999998 1.7330598e-38
0.017000001 0 0.0089999996 1.7239495e-38
0.017000001 0 0.0080000004 1.7515365e-38
0.017000001 0 0.0070000002 1.7425687e-38
0.017000001 0 0.0060000001 1.7146578e-38
0.017000001 0 0.0049999999 1.7422439e-38
0.017000001 0 0.0040000002 1.7698664e-38
0.017000001 0 0.003 1.742209e-38
0.017000001 0 0.0020000001 1.7422089e-38
0.017000001 0 0.001 1.7146581e-38
0.016000001 0 0.064000003 9.3261514e-39
0.016000001 0 0.063000001 9.0506435e-39
0.016000001 0 0.061999999 6.4720399e-39
0.016000001 0 0.061000001 9.0520756e-39
0.016000001 0 0.059999999 9.4169022e-39
0.016000001 0 0.059 2.695619e-39
0.016000001 0 0.057999998 9.0495617e-39
0.016000001 0 0.057 5.0876635e-39
0.016000001 0 0.056000002 8.5911058e-39
0.016000001 0 0.055 8.4985487e-39
0.016000001 0 0.054000001 9.2325222e-39
0.016000001 0 0.052999999 5.456809e-39
0.016000001 0 0.052000001 9.0495645e-39
0.016000001 0 0.050999999 9.1428405e-39
0.016000001 0 0.050000001 9.1442852e-39
0.016000001 0 0.048999999 9.5098195e-39
0.016000001 0 0.048 9.7835296e-39
0.016000001 0 0.046999998 9.3254255e-39
0.016000001 0 0.046 9.1417601e-39
0.016000001 0 0.045000002 9.6931402e-39
0.016000001 0 0.044 9.4176183e-39
0.016000001 0 0.043000001 9.9697243e-39
0.016000001 0 0.041999999 9.8768042e-39
0.016000001 0 0.041000001 9.8764413e-39
0.016000001 0 0.039999999 9.5073028e-39
0.016000001 0 0.039000001 9.8757252e-39
0.016000001 0 0.037999999 1.0611495e-38
0.016000001 0 0.037 9.0448855e-39
0.016000001 0 0.035999998 9.9664873e-39
0.016000001 0 0.035 1.0243432e-38
0.016000001 0 0.034000002 9.6909794e-39
0.016000001 0 0.033 1.0793726e-38
0.016000001 0 0.032000002 1.0517136e-38
0.016000001 0 0.030999999 1.1438372e-38
0.016000001 0 0.029999999 1.1898278e-38
0.016000001 0 0.028999999 1.1069234e-38
0.016000001 0 0.028000001 1.2911704e-38
0.016000001 0 0.027000001 1.2910988e-38
0.016000001 0 0.026000001 1.3188297e-38
0.016000001 0 0.025 1.3741105e-38
0.016000001 0 0.024 1.4293923e-38
0.016000001 0 0.023 1.4845657e-38
0.016000001 0 0.022 1.4386471e-38
0.016000001 0 0.021 1.5767611e-38
0.016000001 0 0.02 1.595021e-38
0.016000001 0 0.018999999 1.6688128e-38
0.016000001 0 0.017999999 1.622787e-38
0.016000001 0 0.017000001 1.714874e-38
0.016000001 0 0.016000001 1.6963629e-38
0.016000001 0 0.015 1.7332776e-38
0.016000001 0 0.014 1.7332413e-38
0.016000001 0 0.013 1.696363e-38
0.016000001 0 0.012 1.613603e-38
0.016000001 0 0.011 1.6778517e-38
0.016000001 0 0.0099999998 1.5858353e-38
0.016000001 0 0.0089999996 1.751717e-38
0.016000001 0 0.0080000004 1.7241299e-38
0.016000001 0 0.0070000002 1.6871797e-38
0.016000001 0 0.0060000001 1.6779242e-38
0.016000001 0 0.0049999999 1.5858367e-38
0.016000001 0 0.0040000002 1.6964349e-38
0.016000001 0 0.003 1.6042389e-38
0.016000001 0 0.0020000001 1.6411175e-38
0.016000001 0 0.001 1.6042389e-38
0.015 0 0.064000003 9.2336012e-39
0.015 0 0.063000001 8.958452e-39
0.015 0 0.061999999 3.8052162e-39
0.015 0 0.061000001 2.0538537e-39
0.015 0 0.059999999 6.3787849e-39
0.015 0 0.059 2.3293504e-39
0.015 0 0.057999998 8.775137e-39
0.015 0 0.057 2.2378652e-39
0.015 0 0.056000002 6.4738434e-39
0.015 0 0.055 8.0390097e-39
0.015 0 0.054000001 9.1439195e-39
0.015 0 0.052999999 6.1046923e-39
0.015 0 0.052000001 6.5642355e-39
0.015 0 0.050999999 8.039374e-39
0.015 0 0.050000001 8.8673284e-39
0.015 0 0.048999999 3.615762e-39
0.015 0 0.048 2.1438479e-39
0.015 0 0.046999998 2.5119102e-39
0.015 0 0.046 3.8001365e-39
0.015 0 0.045000002 9.6967191e-39
0.015 0 0.044 9.3254283e-39
0.015 0 0.043000001 9.5109041e-39
0.015 0 0.041999999 9.1413859e-39
0.015 0 0.041000001 2.7842147e-39
0.015 0 0.039999999 8.9595268e-39
0.015 0 0.039000001 8.8676927e-39
0.015 0 0.037999999 4.257177e-39
0.015 0 0.037 7.3007188e-39
0.015 0 0.035999998 9.511623e-39
0.015 0 0.035 9.8793265e-39
0.015 0 0.034000002 9.3261486e-39
0.015 0 0.033 6.6513865e-39
0.015 0 0.032000002 4.6230966e-39
0.015 0 0.030999999 9.419426e-39
0.015 0 0.029999999 9.695287e-39
0.015 0 0.028999999 9.786775e-39
0.015 0 0.028000001 8.9588038e-39
0.015 0 0.027000001 5.0883768e-39
0.015 0 0.026000001 9.5109098e-39
0.015 0 0.025 9.419426e-39
0.015 0 0.024 9.7856876e-39
0.015 0 0.023 1.0339577e-38
0.015 0 0.022 9.6031026e-39
0.015 0 0.021 9.6038186e-39
0.015 0 0.02 9.8782461e-39
0.015 0 0.018999999 9.9700732e-39
0.015 0 0.017999999 9.8796727e-39
0.015 0 0.017000001 1.0154464e-38
0.015 0 0.016000001 9.695287e-39
0.015 0 0.015 1.0801646e-38
0.015 0 0.014 1.0248469e-38
0.015 0 0.013 1.0707652e-38
0.015 0 0.012 1.0248827e-38
0.015 0 0.011 7.7624242e-39
0.015 0 0.0099999998 1.0892399e-38
0.015 0 0.0089999996 1.0707652e-38
0.015 0 0.0080000004 1.0800927e-38
0.015 0 0.0070000002 7.3922011e-39
0.015 0 0.0060000001 1.0525413e-38
0.015 0 0.0049999999 5.1827556e-39
0.015 0 0.0040000002 1.1167546e-38
0.015 0 0.003 1.1167546e-38
0.015 0 0.0020000001 1.0524696e-38
0.015 0 0.001 1.1076435e-38
0.014 0 0.064000003 9.1424734e-39
0.014 0 0.063000001 9.509465e-39
0.014 0 0.061999999 9.0499288e-39
0.014 0 0.061000001 8.3141574e-39
0.014 0 0.059999999 7.4901589e-39
0.014 0 0.059 2.7878146e-39
0.014 0 0.057999998 8.7740566e-39
0.014 0 0.057 3.5250251e-39
0.014 0 0.056000002 5.9217402e-39
0.014 0 0.055 5.8277537e-39
0.014 0 0.054000001 9.6952982e-39
0.014 0 0.052999999 2.6041366e-39
0.014 0 0.052000001 5.0944906e-39
0.014 0 0.050999999 6.2898206e-39
0.014 0 0.050000001 1.6853837e-39
0.014 0 0.048999999 5.4618158e-39
0.014 0 0.048 6.8415413e-39
0.014 0 0.046999998 7.8556904e-39
0.014 0 0.046 7.672018e-39
0.014 0 0.045000002 1.4073661e-39
0.014 0 0.044 2.6008744e-39
0.014 0 0.043000001 9.1417573e-39
0.014 0 0.041999999 5.922445e-39
0.014 0 0.041000001 7.2106741e-39
0.014 0 0.039999999 9.4179925e-39
0.014 0 0.039000001 1.0802711e-38
0.014 0 0.037999999 5.0905222e-39
0.014 0 0.037 5.6433484e-39
0.014 0 0.035999998 9.5123461e-39
0.014 0 0.035 9.2350361e-39
0.014 0 0.034000002 2.8706384e-39
0.014 0 0.033 3.2412188e-39
0.014 0 0.032000002 2.4121784e-39
0.014 0 0.030999999 2.966071e-39
0.014 0 0.029999999 9.0513497e-39
0.014 0 0.028999999 9.6967401e-39
0.014 0 0.028000001 9.6977967e-39
0.014 0 0.027000001 6.0106848e-39
0.014 0 0.026000001 8.6807819e-39
0.014 0 0.025 9.235762e-39
0.014 0 0.024 7.8513744e-39
0.014 0 0.023 5.9210269e-39
0.014 0 0.022 9.3257968e-39
0.014 0 0.021 9.6052634e-39
0.014 0 0.02 3.0636616e-39
0.014 0 0.018999999 2.8814172e-39
0.014 0 0.017999999 2.7899516e-39
0.014 0 0.017000001 3.1587313e-39
0.014 0 0.016000001 3.3434743e-39
0.014 0 0.015 6.1954474e-39
0.014 0 0.014 9.6960143e-39
0.014 0 0.013 8.4992619e-39
0.014 0 0.012 5.8291928e-39
0.014 0 0.011 7.94717e-39
0.014 0 0.0099999998 1.0525775e-38
0.014 0 0.0089999996 9.6949353e-39
0.014 0 0.0080000004 1.0615813e-38
0.014 0 0.0070000002 4.0803569e-39
0.014 0 0.0060000001 1.0341031e-38
0.014 0 0.0049999999 5.7413244e-39
0.014 0 0.0040000002 1.1078221e-38
0.014 0 0.003 4.0825205e-39
0.014 0 0.0020000001 4.0825317e-39
0.014 0 0.001 1.0525413e-38
0.013 0 0.064000003 8.9577304e-39
0.013 0 0.063000001 8.774781e-39
0.013 0 0.061999999 8.3141588e-39
0.013 0 0.061000001 1.9598574e-39
0.013 0 0.059999999 2.6055828e-39
0.013 0 0.059 2.2378891e-39
0.013 0 0.057999998 1.4074053e-39
0.013 0 0.057 2.6963379e-39
0.013 0 0.056000002 7.5791175e-39
0.013 0 0.055 7.7635116e-39
0.013 0 0.054000001 2.0534628e-39
0.013 0 0.052999999 8.4077964e-39
0.013 0 0.052000001 6.2915989e-39
0.013 0 0.050999999 5.554031e-39
0.013 0 0.050000001 6.4752671e-39
0.013 0 0.048999999 3.6153963e-39
0.013 0 0.048 1.7754466e-39
0.013 0 0.046999998 1.7761542e-39
0.013 0 0.046 3.1555041e-39
0.013 0 0.045000002 7.8538953e-39
0.013 0 0.044 7.9471672e-39
0.013 0 0.043000001 3.3377374e-39
0.013 0 0.041999999 3.5232091e-39
0.013 0 0.041000001 3.5235636e-39
0.013 0 0.039999999 9.235762e-39
0.013 0 0.039000001 4.627386e-39
0.013 0 0.037999999 4.535203e-39
0.013 0 0.037 9.5130649e-39
0.013 0 0.035999998 8.9559269e-39
0.013 0 0.035 5.3610022e-39
0.013 0 0.034000002 2.3206988e-39
0.013 0 0.033 2.411807e-39
0.013 0 0.032000002 2.4121784e-39
0.013 0 0.030999999 2.5965696e-39
0.013 0 0.029999999 2.8738866e-39
0.013 0 0.028999999 8.8676843e-39
0.013 0 0.028000001 9.143195e-39
0.013 0 0.027000001 6.8415357e-39
0.013 0 0.026000001 4.995814e-39
0.013 0 0.025 9.4190743e-39
0.013 0 0.024 5.6429813e-39
0.013 0 0.023 4.6291965e-39
0.013 0 0.022 8.5003409e-39
0.013 0 0.021 2.695228e-39
0.013 0 0.02 6.8433335e-39
0.013 0 0.018999999 5.2742156e-39
0.013 0 0.017999999 4.9050631e-39
0.013 0 0.017000001 6.0121309e-39
0.013 0 0.016000001 5.5518646e-39
0.013 0 0.015 3.2530765e-39
0.013 0 0.014 5.1874121e-39
0.013 0 0.013 5.5515157e-39
0.013 0 0.012 7.1184743e-39
0.013 0 0.011 7.2114084e-39
0.013 0 0.0099999998 1.098567e-38
0.013 0 0.0089999996 5.5511626e-39
0.013 0 0.0080000004 9.3279576e-39
0.013 0 0.0070000002 4.0810674e-39
0.013 0 0.0060000001 1.0156274e-38
0.013 0 0.0049999999 4.9083295e-39
0.013 0 0.0040000002 4.6353398e-39
0.013 0 0.003 6.846593e-39
0.013 0 0.0020000001 1.0156995e-38
0.013 0 0.001 1.0801646e-38
0.012 0 0.064000003 9.2328781e-39
0.012 0 0.063000001 8.8673326e-39
0.012 0 0.061999999 8.957366e-39
0.012 0 0.061000001 8.9566458e-39
0.012 0 0.059999999 8.958452e-39
0.012 0 0.059 2.511239e-39
0.012 0 0.057999998 2.0502468e-39
0.012 0 0.057 2.0538481e-39
0.012 0 0.056000002 2.0545516e-39
0.012 0 0.055 6.0143128e-39
0.012 0 0.054000001 1.8694372e-39
0.012 0 0.052999999 3.8012295e-39
0.012 0 0.052000001 6.7532917e-39
0.012 0 0.050999999 3.3424065e-39
0.012 0 0.050000001 6.8397406e-39
0.012 0 0.048999999 3.0665245e-39
0.012 0 0.048 6.1979641e-39
0.012 0 0.046999998 1.8672764e-39
0.012 0 0.046 1.9583819e-39
0.012 0 0.045000002 1.68359e-39
0.012 0 0.044 6.1050608e-39
0.012 0 0.043000001 3.8008735e-39
0.012 0 0.041999999 8.5910974e-39
0.012 0 0.041000001 5.1827192e-39
0.012 0 0.039999999 8.9588038e-39
0.012 0 0.039000001 3.4310022e-39
0.012 0 0.037999999 5.8288397e-39
0.012 0 0.037 9.511623e-39
0.012 0 0.035999998 9.5108929e-39
0.012 0 0.035 2.5050929e-39
0.012 0 0.034000002 2.5972885e-39
0.012 0 0.033 2.1366733e-39
0.012 0 0.032000002 2.6894869e-39
0.012 0 0.030999999 3.1468721e-39
0.012 0 0.029999999 2.7813126e-39
0.012 0 0.028999999 4.1660673e-39
0.012 0 0.028000001 8.6840302e-39
0.012 0 0.027000001 9.1442852e-39
0.012 0 0.026000001 6.8415245e-39
0.012 0 0.025 9.1424762e-39
0.012 0 0.024 3.5232119e-39
0.012 0 0.023 5.5533094e-39
0.012 0 0.022 8.406332e-39
0.012 0 0.021 6.4756412e-39
0.012 0 0.02 3.8952174e-39
0.012 0 0.018999999 2.882136e-39
0.012 0 0.017999999 2.6069911e-39
0.012 0 0.017000001 6.0171532e-39
0.012 0 0.016000001 7.9453721e-39
0.012 0 0.015 2.8853688e-39
0.012 0 0.014 9.5119775e-39
0.012 0 0.013 6.2004823e-39
0.012 0 0.012 6.8429916e-39
0.012 0 0.011 9.788933e-39
0.012 0 0.0099999998 3.8048406e-39
0.012 0 0.0089999996 9.3290226e-39
0.012 0 0.0080000004 1.015807e-38
0.012 0 0.0070000002 4.8189968e-39
0.012 0 0.0060000001 5.1852625e-39
0.012 0 0.0049999999 3.6229829e-39
0.012 0 0.0040000002 5.8263188e-39
0.012 0 0.003 3.9896074e-39
0.012 0 0.0020000001 9.2364809e-39
0.012 0 0.001 1.0522176e-38
0.011 0 0.064000003 9.3250724e-39
0.011 0 0.063000001 7.8553373e-39
0.011 0 0.061999999 1.777627e-39
0.011 0 0.061000001 2.1428068e-39
0.011 0 0.059999999 8.6818623e-39
0.011 0 0.059 8.2237709e-39
0.011 0 0.057999998 8.5932723e-39
0.011 0 0.057 8.9602429e-39
0.011 0 0.056000002 7.6716649e-39
0.011 0 0.055 6.6625394e-39
0.011 0 0.054000001 1.6846915e-39
0.011 0 0.052999999 8.0375677e-39
0.011 0 0.052000001 2.7906775e-39
0.011 0 0.050999999 5.6483875e-39
0.011 0 0.050000001 3.5275026e-39
0.011 0 0.048999999 8.0379237e-39
0.011 0 0.048 1.683953e-39
0.011 0 0.046999998 1.9551533e-39
0.011 0 0.046 7.3046746e-39
0.011 0 0.045000002 2.6044743e-39
0.011 0 0.044 1.683953e-39
0.011 0 0.043000001 3.7112031e-39
0.011 0 0.041999999 8.4077964e-39
0.011 0 0.041000001 4.7224599e-39
0.011 0 0.039999999 9.1424734e-39
0.011 0 0.039000001 2.6937917e-39
0.011 0 0.037999999 9.049926e-39
0.011 0 0.037 9.8785993e-39
0.011 0 0.035999998 2.4136161e-39
0.011 0 0.035 2.3221463e-39
0.011 0 0.034000002 3.059354e-39
0.011 0 0.033 4.6241504e-39
0.011 0 0.032000002 2.688045e-39
0.011 0 0.030999999 8.4974459e-39
0.011 0 0.029999999 1.8615185e-39
0.011 0 0.028999999 3.0589813e-39
0.011 0 0.028000001 8.775137e-39
0.011 0 0.027000001 9.6956527e-39
0.011 0 0.026000001 3.5249915e-39
0.011 0 0.025 4.3536956e-39
0.011 0 0.024 4.5380686e-39
0.011 0 0.023 5.2756547e-39
0.011 0 0.022 8.4045482e-39
0.011 0 0.021 7.2132049e-39
0.011 0 0.02 2.3304042e-39
0.011 0 0.018999999 3.4356727e-39
0.011 0 0.017999999 9.0542364e-39
0.011 0 0.017000001 5.8273837e-39
0.011 0 0.016000001 2.9754191e-39
0.011 0 0.015 9.6063354e-39
0.011 0 0.014 5.4621899e-39
0.011 0 0.013 4.9115273e-39
0.011 0 0.012 5.8288257e-39
0.011 0 0.011 9.6045445e-39
0.011 0 0.0099999998 4.3591088e-39
0.011 0 0.0089999996 7.6695069e-39
0.011 0 0.0080000004 3.2495116e-39
0.011 0 0.0070000002 3.7133695e-39
0.011 0 0.0060000001 7.8557072e-39
0.011 0 0.0049999999 9.4205162e-39
0.011 0 0.0040000002 9.3315576e-39
0.011 0 0.003 9.1493145e-39
0.011 0 0.0020000001 1.0432863e-38
0.011 0 0.001 1.0064435e-38
0.0099999998 0 0.064000003 9.4197819e-39
0.0099999998 0 0.063000001 5.0001552e-39
0.0099999998 0 0.061999999 5.1856325e-39
0.0099999998 0 0.061000001 4.8175702e-39
0.0099999998 0 0.059999999 1.5910749e-39
0.0099999998 0 0.059 7.7606319e-39
0.0099999998 0 0.057999998 8.9591723e-39
0.0099999998 0 0.057 2.1460466e-39
0.0099999998 0 0.056000002 6.3841631e-39
0.0099999998 0 0.055 8.4085125e-39
0.0099999998 0 0.054000001 9.6052494e-39
0.0099999998 0 0.052999999 1.9619846e-39
0.0099999998 0 0.052000001 1.6861026e-39
0.0099999998 0 0.050999999 8.1297662e-39
0.0099999998 0 0.050000001 8.0422369e-39
0.0099999998 0 0.048999999 2.1470807e-39
0.0099999998 0 0.048 7.4847583e-39
0.0099999998 0 0.046999998 7.5830524e-39
0.0099999998 0 0.046 2.3264511e-39
0.0099999998 0 0.045000002 8.1304822e-39
0.0099999998 0 0.044 2.695228e-39
0.0099999998 0 0.043000001 1.9558707e-39
0.0099999998 0 0.041999999 8.5914604e-39
0.0099999998 0 0.041000001 3.9856207e-39
0.0099999998 0 0.039999999 6.1028832e-39
0.0099999998 0 0.039000001 5.5504465e-39
0.0099999998 0 0.037999999 9.4186945e-39
0.0099999998 0 0.037 8.682563e-39
0.0099999998 0 0.035999998 2.0455566e-39
0.0099999998 0 0.035 2.8749628e-39
0.0099999998 0 0.034000002 8.7754971e-39
0.0099999998 0 0.033 5.3646021e-39
0.0099999998 0 0.032000002 2.5047411e-39
0.0099999998 0 0.030999999 9.6038172e-39
0.0099999998 0 0.029999999 6.1039734e-39
0.0099999998 0 0.028999999 2.8735124e-39
0.0099999998 0 0.028000001 2.5065376e-39
0.0099999998 0 0.027000001 9.5112699e-39
0.0099999998 0 0.026000001 9.3268786e-39
0.0099999998 0 0.025 2.7863517e-39
0.0099999998 0 0.024 3.9848949e-39
0.0099999998 0 0.023 7.7624382e-39
0.0099999998 0 0.022 9.1439293e-39
0.0099999998 0 0.021 2.5122787e-39
0.0099999998 0 0.02 9.2389878e-39
0.0099999998 0 0.018999999 3.24842e-39
0.0099999998 0 0.017999999 7.7606109e-39
0.0099999998 0 0.017000001 2.6059149e-39
0.0099999998 0 0.016000001 8.1351612e-39
0.0099999998 0 0.015 3.8952132e-39
0.0099999998 0 0.014 3.2523605e-39
0.0099999998 0 0.013 9.2361137e-39
0.0099999998 0 0.012 2.9765093e-39
0.0099999998 0 0.011 9.420505e-39
0.0099999998 0 0.0099999998 2.9775883e-39
0.0099999998 0 0.0089999996 5.8335186e-39
0.0099999998 0 0.0080000004 9.3286737e-39
0.0099999998 0 0.0070000002 9.6048962e-39
0.0099999998 0 0.0060000001 6.1075874e-39
0.0099999998 0 0.0049999999 4.820087e-39
0.0099999998 0 0.0040000002 1.0065525e-38
0.0099999998 0 0.003 1.0709453e-38
0.0099999998 0 0.0020000001 4.8157696e-39
0.0099999998 0 0.001 8.3152476e-39
0.0089999996 0 0.064000003 9.8778916e-39
0.0089999996 0 0.063000001 2.6041422e-39
0.0089999996 0 0.061999999 6.5660586e-39
0.0089999996 0 0.061000001 2.1463983e-39
0.0089999996 0 0.059999999 6.9315845e-39
0.0089999996 0 0.059 2.1453221e-39
0.0089999996 0 0.057999998 1.5892827e-39
0.0089999996 0 0.057 9.2357648e-39
0.0089999996 0 0.056000002 8.3145246e-39
0.0089999996 0 0.055 1.4999499e-39
0.0089999996 0 0.054000001 5.5536849e-39
0.0089999996 0 0.052999999 7.5780469e-39
0.0089999996 0 0.052000001 8.8651704e-39
0.0089999996 0 0.050999999 8.8698451e-39
0.0089999996 0 0.050000001 6.8451216e-39
0.0089999996 0 0.048999999 1.5013568e-39
0.0089999996 0 0.048 1.2233266e-39
0.0089999996 0 0.046999998 2.6938001e-39
0.0089999996 0 0.046 3.0615008e-39
0.0089999996 0 0.045000002 9.0563804e-39
0.0089999996 0 0.044 9.0506435e-39
0.0089999996 0 0.043000001 8.4992619e-39
0.0089999996 0 0.041999999 6.1054182e-39
0.0089999996 0 0.041000001 2.5076026e-39
0.0089999996 0 0.039999999 2.5076026e-39
0.0089999996 0 0.039000001 8.5911058e-39
0.0089999996 0 0.037999999 9.1435636e-39
0.0089999996 0 0.037 2.4150552e-39
0.0089999996 0 0.035999998 2.4121812e-39
0.0089999996 0 0.035 5.8277495e-39
0.0089999996 0 0.034000002 9.143195e-39
0.0089999996 0 0.033 2.1370264e-39
0.0089999996 0 0.032000002 1.3047546e-39
0.0089999996 0 0.030999999 8.1315752e-39
0.0089999996 0 0.029999999 8.3130686e-39
0.0089999996 0 0.028999999 2.6901988e-39
0.0089999996 0 0.028000001 2.5083299e-39
0.0089999996 0 0.027000001 5.2774638e-39
0.0089999996 0 0.026000001 9.2364753e-39
0.0089999996 0 0.025 3.0604218e-39
0.0089999996 0 0.024 2.7870719e-39
0.0089999996 0 0.023 9.1453586e-39
0.0089999996 0 0.022 6.3791156e-39
0.0089999996 0 0.021 4.8175478e-39
0.0089999996 0 0.02 1.9569624e-39
0.0089999996 0 0.018999999 2.9736268e-39
0.0089999996 0 0.017999999 3.6204396e-39
0.0089999996 0 0.017000001 9.3286737e-39
0.0089999996 0 0.016000001 3.4356699e-39
0.0089999996 0 0.015 3.3470785e-39
0.0089999996 0 0.014 9.3301044e-39
0.0089999996 0 0.013 8.2215876e-39
0.0089999996 0 0.012 2.0574298e-39
0.0089999996 0 0.011 2.6102365e-39
0.0089999996 0 0.0099999998 9.6967373e-39
0.0089999996 0 0.0089999996 9.7889386e-39
0.0089999996 0 0.0080000004 3.6218955e-39
0.0089999996 0 0.0070000002 3.2534731e-39
0.0089999996 0 0.0060000001 9.8818503e-39
0.0089999996 0 0.0049999999 9.8804083e-39
0.0089999996 0 0.0040000002 7.487645e-39
0.0089999996 0 0.003 4.3587585e-39
0.0089999996 0 0.0020000001 3.7151898e-39
0.0089999996 0 0.001 6.29558e-39
0.0080000004 0 0.064000003 8.7733419e-39
0.0080000004 0 0.063000001 4.1736259e-39
0.0080000004 0 0.061999999 5.4607872e-39
0.0080000004 0 0.061000001 1.0382683e-39
0.0080000004 0 0.059999999 2.1456934e-39
0.0080000004 0 0.059 6.8429944e-39
0.0080000004 0 0.057999998 9.467789e-40
0.0080000004 0 0.057 3.8912951e-39
0.0080000004 0 0.056000002 8.4074405e-39
0.0080000004 0 0.055 9.3275807e-39
0.0080000004 0 0.054000001 3.522493e-39
0.0080000004 0 0.052999999 1.5896358e-39
0.0080000004 0 0.052000001 6.5706997e-39
0.0080000004 0 0.050999999 1.4995645e-39
0.0080000004 0 0.050000001 3.3445505e-39
0.0080000004 0 0.048999999 1.7790185e-39
0.0080000004 0 0.048 1.4098898e-39
0.0080000004 0 0.046999998 1.500289e-39
0.0080000004 0 0.046 1.409164e-39
0.0080000004 0 0.045000002 1.8661862e-39
0.0080000004 0 0.044 1.8661834e-39
0.0080000004 0 0.043000001 7.3929172e-39
0.0080000004 0 0.041999999 1.3115915e-39
0.0080000004 0 0.041000001 2.0487852e-39
0.0080000004 0 0.039999999 1.9569427e-39
0.0080000004 0 0.039000001 8.682591e-39
0.0080000004 0 0.037999999 5.4593061e-39
0.0080000004 0 0.037 1.9537141e-39
0.0080000004 0 0.035999998 3.0579023e-39
0.0080000004 0 0.035 9.235762e-39
0.0080000004 0 0.034000002 1.770776e-39
0.0080000004 0 0.033 6.4698679e-39
0.0080000004 0 0.032000002 2.7802364e-39
0.0080000004 0 0.030999999 3.3334144e-39
0.0080000004 0 0.029999999 8.775137e-39
0.0080000004 0 0.028999999 6.3791142e-39
0.0080000004 0 0.028000001 2.2306612e-39
0.0080000004 0 0.027000001 3.1533461e-39
0.0080000004 0 0.026000001 9.6031026e-39
0.0080000004 0 0.025 4.9050631e-39
0.0080000004 0 0.024 2.3253735e-39
0.0080000004 0 0.023 9.3268674e-39
0.0080000004 0 0.022 6.1057797e-39
0.0080000004 0 0.021 8.960617e-39
0.0080000004 0 0.02 5.9181374e-39
0.0080000004 0 0.018999999 3.707952e-39
0.0080000004 0 0.017999999 2.9743317e-39
0.0080000004 0 0.017000001 2.6077071e-39
0.0080000004 0 0.016000001 2.8842912e-39
0.0080000004 0 0.015 2.4240361e-39
0.0080000004 0 0.014 9.2404171e-39
0.0080000004 0 0.013 9.5134139e-39
0.0080000004 0 0.012 9.2375543e-39
0.0080000004 0 0.011 9.0553238e-39
0.0080000004 0 0.0099999998 2.1464011e-39
0.0080000004 0 0.0089999996 2.9779652e-39
0.0080000004 0 0.0080000004 9.3308345e-39
0.0080000004 0 0.0070000002 9.6059865e-39
0.0080000004 0 0.0060000001 9.3272304e-39
0.0080000004 0 0.0049999999 3.7137352e-39
0.0080000004 0 0.0040000002 6.8455055e-39
0.0080000004 0 0.003 7.9493434e-39
0.0080000004 0 0.0020000001 7.3054131e-39
0.0080000004 0 0.001 3.0701749e-39
0.0070000002 0 0.064000003 8.7740608e-39
0.0070000002 0 0.063000001 5.5526045e-39
0.0070000002 0 0.061999999 2.8800257e-39
0.0070000002 0 0.061000001 8.4103173e-39
0.0070000002 0 0.059999999 1.5003282e-39
0.0070000002 0 0.059 2.0513286e-39
0.0070000002 0 0.057999998 7.8531919e-39
0.0070000002 0 0.057 2.6077436e-39
0.0070000002 0 0.056000002 9.142479e-39
0.0070000002 0 0.055 4.8146766e-39
0.0070000002 0 0.054000001 3.6175725e-39
0.0070000002 0 0.052999999 5.6451533e-39
0.0070000002 0 0.052000001 3.3431226e-39
0.0070000002 0 0.050999999 1.131875e-39
0.0070000002 0 0.050000001 7.0273829e-39
0.0070000002 0 0.048999999 7.9471812e-39
0.0070000002 0 0.048 8.3134287e-39
0.0070000002 0 0.046999998 3.7054409e-39
0.0070000002 0 0.046 3.4306491e-39
0.0070000002 0 0.045000002 5.8277495e-39
0.0070000002 0 0.044 4.7242732e-39
0.0070000002 0 0.043000001 2.4164831e-39
0.0070000002 0 0.041999999 2.691275e-39
0.0070000002 0 0.041000001 2.1406151e-39
0.0070000002 0 0.039999999 1.9555106e-39
0.0070000002 0 0.039000001 9.3283094e-39
0.0070000002 0 0.037999999 1.8611654e-39
0.0070000002 0 0.037 2.6901988e-39
0.0070000002 0 0.035999998 5.736986e-39
0.0070000002 0 0.035 7.4833037e-39
0.0070000002 0 0.034000002 1.95158e-39
0.0070000002 0 0.033 2.4111022e-39
0.0070000002 0 0.032000002 2.2267109e-39
0.0070000002 0 0.030999999 6.6557053e-39
0.0070000002 0 0.029999999 3.0572016e-39
0.0070000002 0 0.028999999 8.039374e-39
0.0070000002 0 0.028000001 2.4146909e-39
0.0070000002 0 0.027000001 3.5232007e-39
0.0070000002 0 0.026000001 5.5497291e-39
0.0070000002 0 0.025 7.2996327e-39
0.0070000002 0 0.024 2.3246547e-39
0.0070000002 0 0.023 7.4850988e-39
0.0070000002 0 0.022 7.2085147e-39
0.0070000002 0 0.021 1.5910413e-39
0.0070000002 0 0.02 2.3289707e-39
0.0070000002 0 0.018999999 2.1453053e-39
0.0070000002 0 0.017999999 5.8327815e-39
0.0070000002 0 0.017000001 5.6469582e-39
0.0070000002 0 0.016000001 1.778315e-39
0.0070000002 0 0.015 2.7013419e-39
0.0070000002 0 0.014 5.4646997e-39
0.0070000002 0 0.013 3.2513039e-39
0.0070000002 0 0.012 7.2142741e-39
0.0070000002 0 0.011 2.327198e-39
0.0070000002 0 0.0099999998 1.1170425e-38
0.0070000002 0 0.0089999996 9.6971031e-39
0.0070000002 0 0.0080000004 9.5127118e-39
0.0070000002 0 0.0070000002 9.8793251e-39
0.0070000002 0 0.0060000001 3.0701637e-39
0.0070000002 0 0.0049999999 8.5961519e-39
0.0070000002 0 0.0040000002 6.9344754e-39
0.0070000002 0 0.003 3.346759e-39
0.0070000002 0 0.0020000001 9.2364809e-39
0.0070000002 0 0.001 3.4385902e-39
0.0060000001 0 0.064000003 9.2310719e-39
0.0060000001 0 0.063000001 8.8673424e-39
0.0060000001 0 0.061999999 1.4084843e-39
0.0060000001 0 0.061000001 9.6070669e-39
0.0060000001 0 0.059999999 7.582e-39
0.0060000001 0 0.059 1.4070508e-39
0.0060000001 0 0.057999998 2.1456752e-39
0.0060000001 0 0.057 5.921729e-39
0.0060000001 0 0.056000002 8.4056468e-39
0.0060000001 0 0.055 3.5257412e-39
0.0060000001 0 0.054000001 5.7402146e-39
0.0060000001 0 0.052999999 3.8051966e-39
0.0060000001 0 0.052000001 7.7635088e-39
0.0060000001 0 0.050999999 8.2234051e-39
0.0060000001 0 0.050000001 6.0124799e-39
0.0060000001 0 0.048999999 2.1442179e-39
0.0060000001 0 0.048 1.3162523e-39
0.0060000001 0 0.046999998 1.5935524e-39
0.0060000001 0 0.046 1.1297114e-39
0.0060000001 0 0.045000002 1.9594581e-39
0.0060000001 0 0.044 4.5366449e-39
0.0060000001 0 0.043000001 8.4999878e-39
0.0060000001 0 0.041999999 1.7732745e-39
0.0060000001 0 0.041000001 2.0477062e-39
0.0060000001 0 0.039999999 2.1395473e-39
0.0060000001 0 0.039000001 9.2350347e-39
0.0060000001 0 0.037999999 5.4589445e-39
0.0060000001 0 0.037 2.2295766e-39
0.0060000001 0 0.035999998 5.6408485e-39
0.0060000001 0 0.035 9.0517225e-39
0.0060000001 0 0.034000002 3.0597198e-39
0.0060000001 0 0.033 2.135946e-39
0.0060000001 0 0.032000002 2.411105e-39
0.0060000001 0 0.030999999 2.2277871e-39
0.0060000001 0 0.029999999 9.5134167e-39
0.0060000001 0 0.028999999 9.1428391e-39
0.0060000001 0 0.028000001 2.6916393e-39
0.0060000001 0 0.027000001 2.3224967e-39
0.0060000001 0 0.026000001 3.7040018e-39
0.0060000001 0 0.025 8.0375705e-39
0.0060000001 0 0.024 2.4172048e-39
0.0060000001 0 0.023 2.8781914e-39
0.0060000001 0 0.022 3.1569279e-39
0.0060000001 0 0.021 5.001593e-39
0.0060000001 0 0.02 7.946793e-39
0.0060000001 0 0.018999999 3.8026714e-39
0.0060000001 0 0.017999999 3.6193592e-39
0.0060000001 0 0.017000001 5.8270194e-39
0.0060000001 0 0.016000001 8.6832903e-39
0.0060000001 0 0.015 9.2364781e-39
0.0060000001 0 0.014 8.4124669e-39
0.0060000001 0 0.013 3.8055427e-39
0.0060000001 0 0.012 3.0647546e-39
0.0060000001 0 0.011 7.767445e-39
0.0060000001 0 0.0099999998 2.3268365e-39
0.0060000001 0 0.0089999996 1.0161669e-38
0.0060000001 0 0.0080000004 9.4205204e-39
0.0060000001 0 0.0070000002 2.7017413e-39
0.0060000001 0 0.0060000001 9.8825705e-39
0.0060000001 0 0.0049999999 5.7355581e-39
0.0060000001 0 0.0040000002 3.1627222e-39
0.0060000001 0 0.003 3.9906892e-39
0.0060000001 0 0.0020000001 8.0404488e-39
0.0060000001 0 0.001 3.06837e-39
0.0049999999 0 0.064000003 8.6793372e-39
0.0049999999 0 0.063000001 8.2230492e-39
0.0049999999 0 0.061999999 7.3976073e-39
0.0049999999 0 0.061000001 1.5910805e-39
0.0049999999 0 0.059999999 8.962052e-39
0.0049999999 0 0.059 7.1231798e-39
0.0049999999 0 0.057999998 1.9605763e-39
0.0049999999 0 0.057 2.3297007e-39
0.0049999999 0 0.056000002 8.6829413e-39
0.0049999999 0 0.055 8.6818609e-39
0.0049999999 0 0.054000001 8.6818623e-39
0.0049999999 0 0.052999999 9.0506477e-39
0.0049999999 0 0.052000001 9.1414056e-39
0.0049999999 0 0.050999999 4.4465961e-39
0.0049999999 0 0.050000001 1.5924832e-39
0.0049999999 0 0.048999999 9.5159306e-39
0.0049999999 0 0.048 6.1050412e-39
0.0049999999 0 0.046999998 6.2901556e-39
0.0049999999 0 0.046 7.0262815e-39
0.0049999999 0 0.045000002 7.9471812e-39
0.0049999999 0 0.044 1.9594609e-39
0.0049999999 0 0.043000001 8.4052783e-39
0.0049999999 0 0.041999999 7.8549743e-39
0.0049999999 0 0.041000001 2.3221407e-39
0.0049999999 0 0.039999999 2.4150524e-39
0.0049999999 0 0.039000001 3.2480501e-39
0.0049999999 0 0.037999999 3.522479e-39
0.0049999999 0 0.037 2.2292248e-39
0.0049999999 0 0.035999998 8.1312179e-39
0.0049999999 0 0.035 2.5047397e-39
0.0049999999 0 0.034000002 3.0543276e-39
0.0049999999 0 0.033 2.0433958e-39
0.0049999999 0 0.032000002 2.4114581e-39
0.0049999999 0 0.030999999 4.812164e-39
0.0049999999 0 0.029999999 2.8710125e-39
0.0049999999 0 0.028999999 6.0081891e-39
0.0049999999 0 0.028000001 2.9682262e-39
0.0049999999 0 0.027000001 2.0462727e-39
0.0049999999 0 0.026000001 5.4603949e-39
0.0049999999 0 0.025 8.5910974e-39
0.0049999999 0 0.024 2.6005227e-39
0.0049999999 0 0.023 2.9700269e-39
0.0049999999 0 0.022 8.9613303e-39
0.0049999999 0 0.021 8.8676955e-39
0.0049999999 0 0.02 2.6952308e-39
0.0049999999 0 0.018999999 3.897025e-39
0.0049999999 0 0.017999999 2.9757848e-39
0.0049999999 0 0.017000001 3.2523717e-39
0.0049999999 0 0.016000001 2.3329223e-39
0.0049999999 0 0.015 2.5151584e-39
0.0049999999 0 0.014 9.2364809e-39
0.0049999999 0 0.013 9.4201505e-39
0.0049999999 0 0.012 8.5932695e-39
0.0049999999 0 0.011 2.3307867e-39
0.0049999999 0 0.0099999998 6.3852295e-39
0.0049999999 0 0.0089999996 3.7101353e-39
0.0049999999 0 0.0080000004 9.1475194e-39
0.0049999999 0 0.0070000002 4.9119267e-39
0.0049999999 0 0.0060000001 3.8023449e-39
0.0049999999 0 0.0049999999 2.6088338e-39
0.0049999999 0 0.0040000002 2.9790526e-39
0.0049999999 0 0.003 2.6070387e-39
0.0049999999 0 0.0020000001 3.8037728e-39
0.0049999999 0 0.001 2.793588e-39
0.0040000002 0 0.064000003 8.3109218e-39
0.0040000002 0 0.063000001 8.5907443e-39
0.0040000002 0 0.061999999 8.7740566e-39
0.0040000002 0 0.061000001 6.2912612e-39
0.0040000002 0 0.059999999 8.5638954e-40
0.0040000002 0 0.059 2.3300847e-39
0.0040000002 0 0.057999998 2.4237153e-39
0.0040000002 0 0.057 2.5115921e-39
0.0040000002 0 0.056000002 7.8549884e-39
0.0040000002 0 0.055 8.9577304e-39
0.0040000002 0 0.054000001 6.934097e-39
0.0040000002 0 0.052999999 3.7079745e-39
0.0040000002 0 0.052000001 8.3159637e-39
0.0040000002 0 0.050999999 2.237854e-39
0.0040000002 0 0.050000001 2.329328e-39
0.0040000002 0 0.048999999 1.9612671e-39
0.0040000002 0 0.048 1.7768563e-39
0.0040000002 0 0.046999998 1.7765045e-39
0.0040000002 0 0.046 1.8672652e-39
0.0040000002 0 0.045000002 2.5094089e-39
0.0040000002 0 0.044 1.9583791e-39
0.0040000002 0 0.043000001 8.4049083e-39
0.0040000002 0 0.041999999 8.2230534e-39
0.0040000002 0 0.041000001 3.2473284e-39
0.0040000002 0 0.039999999 1.7711193e-39
0.0040000002 0 0.039000001 1.6782161e-39
0.0040000002 0 0.037999999 3.7965477e-39
0.0040000002 0 0.037 1.8611626e-39
0.0040000002 0 0.035999998 7.7599088e-39
0.0040000002 0 0.035 9.5141411e-39
0.0040000002 0 0.034000002 2.138104e-39
0.0040000002 0 0.033 2.5032978e-39
0.0040000002 0 0.032000002 2.4114553e-39
0.0040000002 0 0.030999999 2.4125455e-39
0.0040000002 0 0.029999999 3.3381073e-39
0.0040000002 0 0.028999999 9.1424762e-39
0.0040000002 0 0.028000001 3.7043507e-39
0.0040000002 0 0.027000001 2.1381054e-39
0.0040000002 0 0.026000001 4.0799856e-39
0.0040000002 0 0.025 8.9588038e-39
0.0040000002 0 0.024 2.6934372e-39
0.0040000002 0 0.023 5.5540451e-39
0.0040000002 0 0.022 9.2361249e-39
0.0040000002 0 0.021 6.7479009e-39
0.0040000002 0 0.02 4.724992e-39
0.0040000002 0 0.018999999 4.1685659e-39
0.0040000002 0 0.017999999 5.2749134e-39
0.0040000002 0 0.017000001 7.1166792e-39
0.0040000002 0 0.016000001 5.7344749e-39
0.0040000002 0 0.015 6.9355292e-39
0.0040000002 0 0.014 2.2403666e-39
0.0040000002 0 0.013 6.8429916e-39
0.0040000002 0 0.012 1.033887e-38
0.0040000002 0 0.011 9.5119775e-39
0.0040000002 0 0.0099999998 8.8691263e-39
0.0040000002 0 0.0089999996 9.6034655e-39
0.0040000002 0 0.0080000004 9.1450055e-39
0.0040000002 0 0.0070000002 2.5170011e-39
0.0040000002 0 0.0060000001 5.0041111e-39
0.0040000002 0 0.0049999999 2.8846934e-39
0.0040000002 0 0.0040000002 2.5162864e-39
0.0040000002 0 0.003 8.8684214e-39
0.0040000002 0 0.0020000001 3.4375155e-39
0.0040000002 0 0.001 9.8800412e-39
0.003 0 0.064000003 9.1385343e-39
0.003 0 0.063000001 8.4049223e-39
0.003 0 0.061999999 8.2223289e-39
0.003 0 0.061000001 8.4974711e-39
0.003 0 0.059999999 7.7627871e-39
0.003 0 0.059 8.4067174e-39
0.003 0 0.057999998 7.2114112e-39
0.003 0 0.057 3.7079773e-39
0.003 0 0.056000002 1.8687366e-39
0.003 0 0.055 9.2350389e-39
0.003 0 0.054000001 4.449145e-39
0.003 0 0.052999999 7.609429e-40
0.003 0 0.052000001 4.90794e-39
0.003 0 0.050999999 8.0386607e-39
0.003 0 0.050000001 2.0556096e-39
0.003 0 0.048999999 2.6030492e-39
0.003 0 0.048 6.1108132e-39
0.003 0 0.046999998 5.555487e-39
0.003 0 0.046 3.0654805e-39
0.003 0 0.045000002 2.1438745e-39
0.003 0 0.044 2.6044785e-39
0.003 0 0.043000001 9.4248084e-39
0.003 0 0.041999999 2.6948931e-39
0.003 0 0.041000001 7.5762196e-39
0.003 0 0.039999999 2.1373781e-39
0.003 0 0.039000001 1.8629632e-39
0.003 0 0.037999999 2.8763851e-39
0.003 0 0.037 2.3210533e-39
0.003 0 0.035999998 8.2230492e-39
0.003 0 0.035 1.3958796e-39
0.003 0 0.034000002 9.6956471e-39
0.003 0 0.033 2.9639158e-39
0.003 0 0.032000002 2.5025831e-39
0.003 0 0.030999999 4.1678764e-39
0.003 0 0.029999999 8.128313e-39
0.003 0 0.028999999 2.8724545e-39
0.003 0 0.028000001 3.1537021e-39
0.003 0 0.027000001 2.8738726e-39
0.003 0 0.026000001 3.9845417e-39
0.003 0 0.025 8.4077964e-39
0.003 0 0.024 2.7856328e-39
0.003 0 0.023 8.95738e-39
0.003 0 0.022 6.0092639e-39
0.003 0 0.021 3.5246398e-39
0.003 0 0.02 2.4211719e-39
0.003 0 0.018999999 2.6048387e-39
0.003 0 0.017999999 1.7779423e-39
0.003 0 0.017000001 2.4211579e-39
0.003 0 0.016000001 2.2400148e-39
0.003 0 0.015 2.6102365e-39
0.003 0 0.014 2.3318433e-39
0.003 0 0.013 3.4385664e-39
0.003 0 0.012 9.511623e-39
0.003 0 0.011 8.8694906e-39
0.003 0 0.0099999998 9.8804055e-39
0.003 0 0.0089999996 9.7882127e-39
0.003 0 0.0080000004 1.0156279e-38
0.003 0 0.0070000002 4.5431329e-39
0.003 0 0.0060000001 2.8839745e-39
0.003 0 0.0049999999 5.1809578e-39
0.003 0 0.0040000002 8.3130826e-39
0.003 0 0.003 2.6073918e-39
0.003 0 0.0020000001 8.4088782e-39
0.003 0 0.001 9.8796755e-39
0.0020000001 0 0.064000003 1.0148004e-38
0.0020000001 0 0.063000001 8.5896667e-39
0.0020000001 0 0.061999999 8.1297774e-39
0.0020000001 0 0.061000001 8.2223261e-39
0.0020000001 0 0.059999999 9.0495645e-39
0.0020000001 0 0.059 4.9090456e-39
0.0020000001 0 0.057999998 4.357311e-39
0.0020000001 0 0.057 4.9083253e-39
0.0020000001 0 0.056000002 5.7398783e-39
0.0020000001 0 0.055 1.4999527e-39
0.0020000001 0 0.054000001 2.6920275e-39
0.0020000001 0 0.052999999 7.7624242e-39
0.0020000001 0 0.052000001 3.7140743e-39
0.0020000001 0 0.050999999 2.7910264e-39
0.0020000001 0 0.050000001 7.945742e-39
0.0020000001 0 0.048999999 4.1739735e-39
0.0020000001 0 0.048 2.0502244e-39
0.0020000001 0 0.046999998 2.5094089e-39
0.0020000001 0 0.046 5.2738456e-39
0.0020000001 0 0.045000002 7.759892e-39
0.0020000001 0 0.044 1.4963359e-39
0.0020000001 0 0.043000001 5.9224632e-39
0.0020000001 0 0.041999999 8.3145218e-39
0.0020000001 0 0.041000001 6.0121267e-39
0.0020000001 0 0.039999999 1.9551561e-39
0.0020000001 0 0.039000001 1.953361e-39
0.0020000001 0 0.037999999 2.229222e-39
0.0020000001 0 0.037 2.3225065e-39
0.0020000001 0 0.035999998 9.0502833e-39
0.0020000001 0 0.035 5.461841e-39
0.0020000001 0 0.034000002 2.5954934e-39
0.0020000001 0 0.033 2.5036537e-39
0.0020000001 0 0.032000002 2.0426728e-39
0.0020000001 0 0.030999999 1.9497751e-39
0.0020000001 0 0.029999999 2.0452021e-39
0.0020000001 0 0.028999999 7.5787504e-39
0.0020000001 0 0.028000001 6.0096142e-39
0.0020000001 0 0.027000001 2.5058075e-39
0.0020000001 0 0.026000001 3.1569475e-39
0.0020000001 0 0.025 6.475637e-39
0.0020000001 0 0.024 2.1402634e-39
0.0020000001 0 0.023 5.0934214e-39
0.0020000001 0 0.022 8.5918317e-39
0.0020000001 0 0.021 3.1565761e-39
0.0020000001 0 0.02 6.2908968e-39
0.0020000001 0 0.018999999 8.5384338e-40
0.0020000001 0 0.017999999 2.5126431e-39
0.0020000001 0 0.017000001 7.3950654e-39
0.0020000001 0 0.016000001 8.3166657e-39
0.0020000001 0 0.015 3.7108247e-39
0.0020000001 0 0.014 3.5293327e-39
0.0020000001 0 0.013 8.9613331e-39
0.0020000001 0 0.012 4.5373666e-39
0.0020000001 0 0.011 4.4498499e-39
0.0020000001 0 0.0099999998 5.6480386e-39
0.0020000001 0 0.0089999996 9.9718879e-39
0.0020000001 0 0.0080000004 8.4049111e-39
0.0020000001 0 0.0070000002 5.0959536e-39
0.0020000001 0 0.0060000001 9.0528127e-39
0.0020000001 0 0.0049999999 8.8712955e-39
