# .PCD v0.7 - Point Cloud Data file format
VERSION 0.7
FIELDS x y z descriptor multiplicity pointId
SIZE 4 4 4 4 4 4
TYPE F F F F I I
COUNT 1 1 1 128 1 1
WIDTH 127
HEIGHT 1
VIEWPOINT 0 0 0 1 0 0 0
POINTS 127
DATA ascii
0.044774834 0 0.028441567 20 8 6 19 69 28 31 68 6 3 1 1 6 73 75 62 53 31 20 9 14 39 27 79 39 37 28 29 32 33 6 30 10 6 13 50 59 51 41 73 102 37 14 33 22 58 40 42 32 37 28 17 118 118 33 31 54 46 34 28 13 12 26 91 9 7 10 41 79 114 24 7 118 33 7 21 49 48 16 75 44 3 0 2 118 109 35 57 30 3 1 3 11 28 54 96 8 21 7 36 59 26 7 3 93 89 14 25 36 14 5 28 24 30 20 32 44 13 3 14 24 22 6 23 48 5 3 14 1 0
0.13004375 0 0.0055314293 17 18 3 0 33 21 1 5 19 34 35 42 32 18 33 28 0 0 1 14 28 53 28 2 0 0 0 0 0 1 1 0 26 1 0 0 68 45 5 21 153 5 1 0 8 71 88 153 16 1 0 0 85 153 68 20 0 0 0 0 9 17 2 0 31 1 0 1 67 52 9 9 153 49 2 8 29 18 9 25 62 18 3 41 153 89 5 4 0 0 0 4 56 8 0 0 7 1 0 1 45 56 3 2 118 98 26 15 10 4 2 3 17 36 33 98 153 1 0 0 0 0 0 6 35 1 0 0 1 0
0.01299012 0 0.0048818514 4 0 0 2 4 0 0 1 12 5 0 0 0 0 0 1 29 5 0 0 0 0 0 1 4 0 0 0 0 0 0 2 60 2 2 39 35 1 5 44 138 61 24 12 0 0 0 24 200 70 5 1 0 0 0 14 60 1 0 0 0 0 4 32 17 3 17 32 9 3 33 69 171 26 18 34 3 0 0 36 200 36 1 0 0 0 0 47 78 14 19 2 0 0 0 13 1 25 80 25 2 0 2 2 111 90 46 5 0 0 0 1 200 96 1 4 2 0 0 5 50 8 52 53 19 0 0 2 1 0
0.013041451 0 0.046868812 22 15 5 0 1 5 24 12 127 27 0 0 0 1 14 68 188 11 0 0 1 2 4 76 42 1 1 2 39 61 11 12 6 4 7 4 2 9 30 5 143 72 1 1 0 2 13 17 188 71 7 0 0 0 1 17 44 17 38 22 24 19 6 5 1 1 2 0 0 5 63 14 106 7 1 0 0 3 57 63 188 10 1 0 0 0 8 86 34 2 7 3 9 24 37 18 1 4 12 2 3 25 11 5 85 18 12 1 0 5 10 23 188 24 1 0 0 0 2 25 44 5 2 5 14 11 9 6 1 0
0.088413313 0 0.025834072 18 0 1 29 6 0 14 81 58 8 0 1 0 0 43 125 125 125 42 1 0 0 6 55 8 53 125 62 0 0 0 0 125 54 1 2 0 0 2 47 125 41 1 2 0 0 8 89 32 19 30 31 5 1 12 39 10 29 72 11 0 0 0 3 98 69 3 1 0 0 0 3 125 84 8 19 3 0 1 8 16 12 33 119 32 3 2 3 95 59 37 16 3 2 1 16 39 37 7 3 6 13 4 12 125 114 10 9 2 0 0 14 10 15 29 53 28 6 1 0 52 77 40 28 4 4 1 2 1 0
0.11896557 0 0.024357617 122 10 6 4 1 2 0 16 73 110 17 3 1 4 0 3 57 85 10 12 11 1 0 0 13 6 7 25 20 2 1 7 122 38 3 3 3 8 3 19 41 91 13 29 34 28 3 4 122 122 13 11 5 5 8 28 24 6 5 13 8 12 18 38 86 24 3 3 7 9 25 98 69 29 7 49 79 17 11 8 122 91 63 14 5 2 3 30 12 36 69 22 6 6 5 6 67 64 10 19 26 6 10 36 9 24 24 90 119 10 4 1 23 122 122 10 3 0 0 0 54 122 56 4 5 2 0 1 1 0
0.094467044 0 0.015041988 10 11 4 9 69 6 0 6 23 25 29 2 6 13 27 76 3 9 38 25 9 63 48 19 11 2 3 5 1 3 51 32 44 17 7 10 31 20 3 24 149 3 0 0 3 21 48 149 19 2 0 0 1 101 149 87 3 2 0 0 0 31 149 75 69 59 43 4 2 4 1 4 149 72 3 0 0 1 5 28 76 66 21 3 0 3 49 36 32 90 14 1 0 12 73 25 67 24 5 0 0 0 6 11 149 53 0 0 0 0 6 40 55 37 19 10 1 2 41 28 58 56 12 3 0 1 25 23 1 0
0.11613395 0 0.048242275 18 5 4 19 10 0 1 9 154 10 3 12 8 0 0 29 154 5 0 0 0 0 1 27 56 4 0 0 0 1 5 19 25 28 26 41 18 0 1 4 154 10 4 16 8 0 0 53 154 8 0 0 0 0 0 39 68 21 2 0 0 0 0 1 63 135 28 7 9 1 0 5 154 40 4 2 3 0 0 27 154 44 3 3 0 0 0 17 18 20 20 6 0 0 0 5 153 67 4 0 0 3 1 9 154 29 1 0 0 0 1 79 90 13 4 4 1 4 13 55 1 2 12 7 1 8 7 1 1 0
0.035853919 0 0.04111167 22 50 24 23 13 3 1 1 83 27 12 16 12 5 4 13 27 7 2 19 36 76 17 10 39 14 4 5 11 31 49 114 13 40 80 27 8 1 0 0 118 58 40 15 6 0 0 13 48 32 28 118 71 3 1 4 62 118 53 36 6 1 2 14 39 16 24 19 24 17 49 23 118 39 11 20 12 4 28 49 19 15 11 98 115 44 50 12 48 62 23 17 10 12 66 54 6 18 37 1 3 20 118 42 16 14 19 5 8 25 118 101 7 4 5 5 14 57 118 39 4 1 0 0 2 14 118 70 1 0
0.035853919 0 0.04111167 6 9 27 53 25 17 62 24 9 20 79 122 25 9 20 18 1 2 54 122 54 28 6 2 41 55 63 30 3 4 4 12 9 16 77 122 26 7 0 0 118 51 72 39 20 36 12 16 13 0 1 14 108 122 29 16 30 7 0 1 6 18 59 54 17 6 10 32 23 112 81 42 122 19 3 1 9 45 42 69 44 3 1 1 76 122 29 19 21 5 1 0 10 47 61 38 4 0 0 11 34 80 69 71 35 32 33 39 37 47 33 26 18 44 40 9 33 41 2 3 29 14 5 5 23 35 8 8 1 0
0.083353117 0 0.018839156 73 2 0 1 0 0 16 69 66 27 7 1 0 0 17 84 41 86 121 5 0 0 0 3 57 35 97 11 0 0 0 5 126 17 4 4 0 0 0 22 32 20 46 38 2 0 1 15 52 39 33 2 0 0 7 56 106 8 6 0 0 0 16 125 100 42 32 7 0 0 0 13 33 32 76 38 6 0 0 1 126 81 12 2 0 0 8 95 57 13 1 0 0 0 27 126 6 35 58 12 1 1 2 1 10 36 126 23 1 0 0 0 126 126 24 1 0 0 0 1 115 40 1 0 0 0 0 4 1 0
0.05596723 0 0.04942672 15 5 2 4 3 7 133 133 5 10 23 39 23 22 106 70 12 32 40 28 4 3 23 26 0 0 2 12 2 3 7 1 43 42 51 38 12 2 6 9 24 25 38 133 133 6 2 3 133 77 35 34 16 5 28 38 21 1 3 8 2 6 65 20 12 34 61 22 12 8 4 3 28 7 11 55 101 62 52 28 133 44 25 17 11 13 28 80 33 15 48 131 3 1 9 5 9 26 22 15 13 8 4 2 17 63 13 12 30 22 27 7 21 55 102 50 58 10 9 10 8 25 72 106 11 2 15 17 1 0
0.034867309 0 0.049170393 30 128 20 8 10 5 3 22 5 24 9 42 105 3 1 7 9 0 0 10 44 5 2 27 3 0 0 0 1 0 1 10 41 84 15 7 20 35 30 36 16 38 67 117 72 33 6 6 129 22 17 29 30 9 7 68 34 3 2 70 78 7 9 35 4 16 51 14 11 15 16 15 7 16 80 29 30 92 19 10 129 24 14 17 16 23 21 73 26 9 10 129 129 2 1 7 0 1 19 45 26 16 5 0 28 29 65 30 19 15 10 11 119 41 15 82 50 2 3 27 3 2 5 129 129 1 1 2 1 0
0.018012382 0 0.024771545 12 32 28 0 0 0 0 1 170 52 8 0 0 0 0 12 152 38 59 9 0 0 0 10 1 26 79 3 1 1 0 0 50 40 13 0 0 0 0 4 170 41 2 2 2 0 0 36 105 25 50 52 30 0 0 5 0 43 120 12 2 0 0 0 62 45 8 0 0 0 0 22 170 57 0 2 5 2 0 59 78 7 13 46 95 22 2 11 17 23 43 14 11 5 7 8 81 2 0 0 0 0 8 37 170 4 0 0 3 5 1 88 46 2 1 5 62 69 13 19 8 6 4 2 8 16 49 26 1 0
0.075999334 0 0.010905082 105 9 12 2 0 0 6 73 64 90 41 1 0 0 5 47 94 100 78 1 0 0 5 69 35 14 9 5 5 11 7 25 71 75 92 5 0 0 0 10 160 70 33 3 0 0 17 143 91 5 1 0 0 0 61 160 15 2 2 0 1 22 44 46 36 61 88 17 0 0 0 0 160 105 18 0 0 0 1 22 160 8 2 0 0 0 7 42 12 6 4 0 0 1 5 7 6 1 1 3 0 0 0 0 71 2 0 0 0 0 0 0 18 0 0 0 0 0 0 1 2 0 0 0 0 0 0 1 1 0
0.09421698 0 0.052448813 27 48 15 4 1 15 7 1 134 40 1 0 0 0 0 35 134 5 1 0 0 0 0 38 15 10 2 0 0 0 0 1 48 2 0 0 32 104 18 5 134 22 1 0 2 4 2 60 92 20 10 0 0 2 5 59 1 2 3 0 0 2 1 0 14 0 0 0 29 134 134 16 134 86 8 0 2 63 134 29 29 101 81 0 0 10 22 6 0 3 7 0 0 0 0 0 4 2 5 4 1 79 111 19 2 5 3 1 1 123 134 5 0 8 9 0 0 55 99 2 0 0 1 0 0 0 0 0 1 0
0.019948769 0 0.039983727 55 50 6 0 0 0 0 0 188 113 6 7 4 0 0 0 30 24 81 47 21 3 0 1 17 20 85 7 0 0 0 3 86 26 2 0 0 0 0 13 188 61 0 1 6 8 3 33 69 9 6 14 46 84 24 20 28 13 6 2 2 6 22 59 62 1 0 0 0 0 10 29 188 26 0 0 1 3 4 41 108 9 4 7 71 61 9 14 27 35 15 8 18 14 9 31 20 0 0 0 0 3 14 16 188 8 0 0 0 2 5 32 93 9 2 4 58 35 2 7 45 16 1 3 30 16 3 17 1 0
0.07231307 0 0.023700604 90 130 7 6 3 1 1 1 29 54 19 12 6 17 16 2 1 2 10 13 22 14 11 3 0 0 0 3 10 12 5 3 130 130 14 11 2 0 0 21 55 130 130 21 1 0 0 1 76 60 53 13 3 0 6 14 7 0 0 0 1 3 38 29 128 61 17 1 0 0 0 20 116 104 70 2 0 0 0 16 130 43 6 0 0 0 1 73 22 7 1 0 0 0 12 26 34 67 42 8 1 1 0 0 57 130 90 17 0 0 0 2 123 130 4 0 0 0 0 9 7 11 0 0 0 0 0 1 1 0
0.086074963 0 0.042126678 0 2 17 10 3 0 0 0 8 4 9 24 44 0 0 0 114 11 1 6 11 0 0 0 21 7 6 4 1 0 0 0 0 2 144 66 1 0 0 0 39 24 144 143 25 0 0 4 144 54 20 23 7 1 1 12 55 11 12 9 16 22 2 5 7 1 76 104 28 2 0 4 114 14 74 36 1 0 0 93 144 105 11 1 0 0 0 59 41 57 20 8 10 12 2 5 13 5 10 30 25 5 0 4 111 69 10 1 1 1 0 28 144 73 2 0 0 0 0 85 41 20 3 0 0 3 14 74 1 0
0.071681887 0 0.039562225 1 1 32 31 12 0 0 0 93 10 6 16 9 0 0 1 43 9 7 1 0 0 0 1 1 5 6 7 11 0 0 0 21 18 164 97 5 0 0 5 164 71 55 31 4 0 0 19 131 22 19 7 15 12 1 8 2 12 23 26 23 3 0 0 116 21 53 34 7 0 0 45 164 89 7 1 0 0 0 70 102 76 9 5 12 9 7 28 1 1 2 19 24 18 13 1 80 79 11 6 2 0 0 4 164 54 0 0 0 0 0 95 66 6 0 0 0 6 34 106 0 0 0 0 3 24 85 6 1 0
0.028461365 -0.075000003 0.054384321 12 3 5 11 0 0 1 7 140 7 0 1 0 0 1 101 140 48 5 13 8 0 0 77 3 5 25 98 47 7 0 3 45 2 0 0 0 0 3 10 140 9 0 0 0 0 7 101 91 49 2 3 8 17 26 53 10 13 2 16 73 95 10 1 30 1 0 0 0 7 105 12 140 58 0 0 0 3 33 32 117 42 0 0 6 61 13 13 4 16 17 9 20 58 8 0 5 0 0 5 7 18 140 21 70 70 12 36 34 22 68 18 71 140 7 4 6 15 1 1 4 23 6 4 17 67 14 0 1 0
0.025310071 -0.075000003 0.053919449 1 0 1 12 2 1 4 1 48 1 0 0 0 0 3 24 136 7 0 0 0 1 7 132 59 38 3 10 13 4 8 27 0 0 0 0 0 13 98 17 98 0 0 0 0 19 72 27 136 10 0 0 1 9 16 81 36 11 1 0 15 42 13 16 1 0 0 6 7 36 136 40 27 1 2 19 17 62 136 27 136 115 9 18 13 17 28 17 48 51 2 1 27 46 1 1 6 9 19 30 36 8 6 9 6 4 30 136 25 5 8 13 52 136 23 82 15 3 1 0 63 136 1 0 4 15 1 0 1 0
0.11699968 -0.075000003 0.053884637 57 24 14 9 4 1 0 5 32 7 13 47 66 1 0 5 139 25 1 7 58 4 3 44 8 2 0 14 139 7 2 6 66 4 4 9 15 28 12 33 66 6 5 26 80 43 3 5 139 30 0 17 86 5 1 37 20 4 0 36 139 3 0 8 70 18 6 36 24 9 3 15 60 3 2 38 87 17 0 13 139 20 1 18 100 8 0 46 17 6 1 38 139 3 0 3 33 25 49 20 14 5 1 2 46 28 21 52 41 2 0 2 117 84 45 53 54 2 0 12 15 4 10 65 123 1 0 4 1 0
0.086176462 -0.075000003 0.050753489 58 6 1 1 30 5 2 10 36 1 0 4 137 27 3 26 70 0 0 0 22 59 91 114 1 0 0 0 11 137 40 4 28 33 16 25 26 4 4 9 85 19 7 23 137 40 8 17 137 15 1 9 38 45 19 53 8 2 1 20 134 137 12 6 25 7 4 12 10 11 22 54 35 4 1 4 53 135 62 51 137 17 3 23 31 30 27 41 13 6 2 44 75 24 29 21 67 29 9 4 3 4 3 14 32 9 34 23 40 47 3 9 53 14 36 24 26 22 4 20 15 16 30 43 25 7 4 4 1 0
0.11704084 -0.075000003 0.050293963 43 24 9 22 40 8 1 9 19 7 0 35 121 6 1 13 76 39 7 15 37 22 13 77 1 2 3 20 128 44 6 5 45 42 21 20 16 0 0 2 58 13 8 38 114 1 1 13 140 37 2 4 82 12 8 64 5 2 0 6 140 19 4 5 44 6 12 15 15 25 9 13 86 9 8 42 64 24 1 7 140 30 0 9 97 7 1 45 13 2 0 15 140 7 0 8 40 8 2 23 26 18 8 17 59 5 0 14 74 28 1 8 140 33 0 15 78 5 0 19 11 5 0 27 140 2 0 1 1 0
0.02426751 -0.075000003 0.049371347 0 2 4 18 14 67 26 1 1 1 2 4 6 137 35 6 28 0 0 1 2 35 35 137 13 0 0 1 3 5 38 124 1 18 101 65 22 2 1 0 28 24 137 55 9 30 8 5 137 21 15 8 8 11 9 95 22 1 4 11 34 7 5 27 0 1 46 48 87 10 5 1 105 18 70 14 1 1 8 14 137 24 4 1 8 2 0 12 26 3 8 15 54 27 2 2 0 0 0 0 32 70 131 1 37 1 0 0 0 4 137 43 137 19 0 1 2 1 50 71 20 5 0 4 15 23 19 9 1 0
0.12742732 -0.075000003 0.049959373 2 3 99 128 20 12 24 13 0 1 113 128 15 4 1 0 1 8 100 73 2 1 1 0 0 0 42 38 4 3 1 0 0 4 128 128 31 24 0 0 11 34 128 63 2 3 0 2 83 93 59 9 1 2 1 5 9 2 0 1 6 8 5 1 0 1 15 32 69 128 16 0 29 13 46 17 14 60 41 37 128 66 27 1 0 1 5 45 12 20 45 4 1 4 4 2 1 1 11 128 115 34 3 3 12 18 50 35 12 11 11 52 21 41 23 0 0 0 28 91 4 16 27 2 0 5 39 22 1 0
0.12742732 -0.075000003 0.049959373 16 128 92 20 2 5 0 1 12 40 83 128 9 0 0 1 128 103 38 33 0 0 0 8 128 116 14 9 21 12 3 6 46 24 7 7 13 62 12 23 43 15 15 56 41 40 29 15 128 45 2 4 1 3 11 40 128 128 14 5 2 0 0 2 20 0 0 0 35 79 20 46 23 0 0 1 5 51 128 63 62 8 1 1 1 6 83 91 115 65 1 1 1 1 2 9 31 2 0 7 35 15 4 18 37 3 1 5 4 2 11 18 0 1 6 7 4 1 9 2 62 40 4 2 1 0 0 1 1 0
0.037289493 -0.075000003 0.048299052 6 1 12 62 117 27 6 4 73 47 50 25 22 15 18 45 80 29 7 20 19 4 2 18 80 8 0 24 53 0 0 9 6 13 60 35 70 59 12 3 61 12 8 5 13 32 61 117 48 6 1 9 33 41 31 50 59 7 2 68 73 1 2 15 9 7 55 21 8 46 117 20 117 18 9 6 25 4 55 97 23 12 18 59 117 7 5 10 28 18 39 117 31 0 0 2 3 0 10 16 2 20 100 12 3 0 54 83 24 4 56 39 1 0 30 117 105 2 2 2 65 11 35 117 6 0 1 10 1 0
0.037289493 -0.075000003 0.048299052 14 0 1 9 52 10 23 117 117 4 2 4 1 0 24 117 18 4 62 47 5 0 40 71 2 19 113 14 5 0 5 10 33 0 0 0 24 19 35 117 117 9 4 10 24 12 16 50 21 4 50 94 117 25 10 5 11 38 109 20 8 8 59 30 85 1 2 10 56 9 2 67 33 40 29 45 51 7 1 8 11 30 55 117 62 13 7 5 72 71 15 4 5 11 46 33 70 1 0 5 70 10 0 22 19 5 2 13 80 27 6 18 16 11 14 40 82 53 52 21 117 26 6 4 5 2 18 65 1 0
0.037289493 -0.075000003 0.048299052 3 29 40 42 14 42 5 0 7 89 28 2 10 20 7 3 6 60 13 2 43 103 2 2 1 101 20 6 75 62 0 0 35 76 51 55 24 22 11 16 99 68 7 1 4 15 27 35 10 28 20 13 28 81 23 11 0 11 15 30 120 53 1 0 18 4 2 10 22 96 97 31 83 92 41 25 18 9 19 30 61 82 17 2 10 92 14 17 3 0 0 9 120 120 9 2 0 3 21 53 37 32 30 2 32 10 7 45 36 9 31 119 77 13 1 11 25 4 2 112 4 0 0 53 120 23 7 6 1 0
0.11505288 -0.075000003 0.048557989 21 2 9 42 108 16 1 3 145 4 0 8 34 8 0 35 56 6 0 24 145 27 0 12 49 33 4 4 19 2 3 17 42 2 28 64 22 0 0 2 145 11 3 14 32 6 0 16 65 4 3 48 145 33 2 13 58 4 0 2 19 9 17 44 41 5 2 4 12 1 1 3 145 69 14 26 15 8 4 24 63 15 13 104 111 32 4 16 105 4 1 4 7 7 5 40 32 1 0 1 7 1 2 10 145 10 1 2 24 17 9 64 54 7 0 4 136 62 8 22 72 24 2 3 8 3 0 16 1 0
0.11708637 -0.075000003 0.046421036 119 29 0 7 18 3 0 1 75 15 0 16 119 46 1 3 63 12 2 1 37 13 12 35 4 3 2 2 63 32 11 7 119 62 4 5 3 1 0 0 87 44 15 74 119 37 2 2 119 11 1 16 43 12 3 20 33 7 1 4 74 69 17 20 119 36 2 1 0 0 2 22 103 30 6 23 83 97 22 44 119 39 1 4 45 42 1 14 38 26 5 20 84 14 1 5 116 21 0 0 0 0 1 6 119 41 1 2 103 33 1 8 64 10 1 2 82 29 0 25 42 6 5 8 51 15 3 17 1 0
0.11708637 -0.075000003 0.046421036 14 12 0 7 65 22 3 7 75 111 2 2 36 38 1 1 13 26 4 8 111 111 0 0 3 3 1 3 32 22 0 0 22 25 2 3 45 51 8 2 32 104 14 4 61 72 4 1 55 77 30 25 86 85 13 19 1 0 0 1 60 111 6 3 75 76 11 7 26 28 6 4 22 12 5 6 111 70 2 2 111 104 3 1 35 52 9 23 17 18 1 0 111 111 4 5 48 108 19 5 4 0 0 0 8 22 15 24 44 20 2 0 76 101 2 7 40 22 1 1 53 68 2 0 81 86 0 2 1 0
0.060361724 -0.075000003 0.044543069 15 3 1 1 53 62 1 6 146 1 1 1 2 3 1 130 71 6 16 21 8 3 6 90 6 25 24 17 6 0 1 1 40 30 2 2 74 76 2 7 146 8 0 2 17 21 3 64 78 13 18 25 52 47 2 16 10 42 17 14 17 9 2 4 72 50 1 1 21 52 6 7 146 43 0 0 12 49 7 13 121 25 0 1 99 84 2 4 34 15 1 2 31 24 7 20 71 77 1 0 6 11 0 1 146 98 1 2 26 27 1 2 120 92 0 1 38 50 2 1 19 7 2 6 36 45 9 10 1 0
0.037915241 -0.075000003 0.041033912 3 55 52 9 2 20 48 9 39 127 41 0 0 0 22 26 16 127 127 50 2 0 0 2 4 8 23 73 26 10 2 0 1 3 18 16 8 47 127 13 23 28 24 83 40 10 77 34 127 83 50 18 2 0 0 18 39 9 5 48 25 3 0 7 11 15 51 42 42 7 12 31 44 13 8 119 123 3 2 1 127 73 7 11 4 0 0 14 24 31 8 21 48 24 5 4 3 1 1 2 63 42 20 50 22 9 0 10 114 95 11 2 127 77 3 1 1 10 6 6 22 55 11 2 2 8 6 6 1 0
0.057894297 -0.075000003 0.040034417 2 3 134 134 0 0 0 1 86 1 34 92 0 0 0 93 122 11 4 4 1 0 1 134 7 7 7 19 31 6 3 26 19 3 17 21 2 6 1 7 134 8 1 1 0 0 1 125 94 18 9 12 7 4 5 66 2 15 30 22 16 2 0 0 22 6 1 1 9 77 8 2 134 79 1 2 1 5 2 11 89 30 17 35 24 22 3 5 2 19 32 16 16 13 2 1 7 34 8 0 9 93 12 1 134 86 1 0 6 44 8 2 117 99 1 1 6 56 9 3 6 11 4 0 13 72 5 2 1 0
0.03898751 -0.075000003 0.038168017 0 7 22 126 87 27 0 0 1 9 54 106 67 12 1 0 0 23 126 24 10 17 2 0 0 3 115 57 2 2 1 1 7 13 42 126 24 0 0 0 103 46 27 60 15 33 15 9 14 1 23 7 14 126 74 5 1 1 28 8 1 36 116 23 18 3 3 75 89 12 2 17 126 11 1 5 8 6 4 81 38 13 8 18 69 50 23 15 24 57 6 4 7 11 78 24 5 0 0 22 33 5 11 102 47 7 16 5 3 3 3 126 7 11 15 6 85 52 1 11 24 91 3 2 31 29 0 0 1 0
0.10279083 -0.075000003 0.035370987 67 85 24 4 8 7 13 38 39 44 30 20 109 100 43 53 0 0 1 4 108 120 6 0 12 0 1 1 16 19 1 16 35 120 82 0 0 0 0 0 120 120 95 23 24 20 10 25 21 8 10 37 120 120 24 16 17 0 1 1 48 53 29 40 24 40 17 0 0 3 5 2 118 120 97 17 2 1 0 8 37 45 120 90 54 18 4 11 7 2 2 5 29 36 19 9 1 4 0 4 25 18 13 6 38 39 20 1 3 1 0 23 75 22 28 6 1 2 1 53 17 3 13 14 10 11 2 14 1 0
0.10279083 -0.075000003 0.035370987 8 3 0 2 5 10 3 3 122 22 0 0 0 0 3 44 122 23 9 13 4 16 37 122 3 4 8 80 63 108 44 15 33 1 3 10 7 3 1 24 122 25 4 1 0 1 55 122 95 43 37 90 46 13 56 75 2 4 20 122 77 4 1 1 38 6 1 0 0 3 71 39 122 122 38 8 1 1 38 52 8 36 85 122 60 10 14 9 0 0 6 117 44 5 12 1 13 20 3 2 1 3 43 23 7 16 8 17 10 2 31 15 2 2 10 32 43 16 15 3 2 1 1 6 9 18 67 7 1 0
0.11750307 -0.075000003 0.034211036 47 1 0 0 3 18 18 39 32 68 4 1 30 62 15 12 42 66 17 25 49 11 5 15 95 87 23 8 9 20 31 71 112 30 1 3 9 12 3 17 56 24 3 11 112 81 4 12 108 24 5 6 40 30 22 32 18 104 83 13 54 30 9 3 71 82 8 4 10 2 0 1 56 53 10 20 96 53 2 12 112 30 0 0 51 49 2 15 17 8 8 4 112 103 1 5 45 13 2 2 13 2 2 32 108 10 0 0 35 44 9 42 112 24 0 1 51 55 3 23 52 9 0 0 105 109 7 15 1 0
0.11750307 -0.075000003 0.034211036 119 73 4 11 14 1 0 1 61 38 5 51 119 13 0 1 78 44 12 44 68 2 0 2 4 1 14 79 60 4 0 1 119 45 1 5 8 22 20 10 75 32 3 40 119 11 0 1 106 43 5 20 65 39 6 26 8 0 0 7 82 70 4 5 38 22 11 11 59 119 49 14 53 24 19 47 93 21 6 8 119 42 4 16 71 18 3 29 8 4 2 20 119 17 2 4 25 14 33 96 89 39 5 12 49 7 2 5 51 76 15 27 53 69 20 26 42 29 0 0 3 8 11 44 55 1 0 2 1 0
0.0075585875 -0.075000003 0.03147763 47 38 15 35 39 6 0 0 28 53 16 81 90 13 0 0 102 95 6 6 45 10 0 1 32 13 9 5 86 19 0 2 97 26 1 2 40 45 4 5 55 11 1 4 117 117 3 7 117 28 1 10 46 17 2 11 50 3 1 18 113 20 2 23 44 69 4 1 28 64 2 2 26 43 11 8 117 85 3 9 117 20 12 47 41 20 3 22 81 3 4 57 46 3 2 67 15 16 3 0 15 117 7 4 3 26 44 31 35 80 6 1 35 14 55 49 13 9 3 42 89 2 6 17 9 3 2 117 1 0
0.0075585875 -0.075000003 0.03147763 25 6 13 119 9 0 2 17 1 0 9 119 22 15 50 45 33 23 7 14 11 24 70 27 83 109 4 2 3 13 13 5 41 3 4 85 18 1 4 83 22 2 5 92 106 7 17 73 119 7 7 28 35 25 10 28 73 44 1 2 45 44 6 7 113 3 0 31 42 2 0 50 49 5 3 109 119 3 0 11 119 28 4 22 33 7 1 22 58 17 1 29 85 16 1 3 50 0 0 4 43 24 14 42 17 1 0 11 119 55 19 49 89 6 0 9 35 7 15 105 27 13 1 24 63 5 5 8 1 0
0.086673953 -0.075000003 0.030998131 15 0 1 2 4 30 58 57 5 1 0 1 3 75 116 36 31 17 5 1 0 5 83 123 128 27 14 6 1 1 17 43 74 84 56 11 5 8 10 23 34 30 94 125 11 25 66 20 129 31 31 31 4 6 25 50 92 3 1 1 4 8 19 42 12 69 58 5 0 1 1 3 70 31 112 62 0 0 1 5 129 56 11 8 5 4 0 27 129 8 1 2 9 9 6 40 1 0 1 0 0 3 7 9 53 4 1 0 0 1 4 16 129 46 2 1 0 0 0 7 129 24 3 1 1 1 0 4 1 0
0.11284274 -0.075000003 0.028765026 45 2 1 1 2 5 8 26 74 10 3 23 27 15 18 67 96 15 3 24 45 18 8 17 19 3 1 41 108 23 5 7 72 7 1 6 35 20 16 21 94 23 11 108 38 2 7 16 108 24 17 76 42 5 12 19 24 6 9 81 108 10 6 3 35 10 5 38 57 6 7 29 85 26 14 35 20 11 37 73 52 22 16 28 40 94 100 79 3 2 7 34 35 79 108 90 25 0 0 23 38 5 6 59 59 91 14 30 36 8 5 16 61 108 53 13 19 25 13 33 63 64 27 10 41 63 47 94 1 0
0.11284274 -0.075000003 0.028765026 3 1 0 0 3 61 106 28 37 19 5 2 19 97 84 15 36 22 12 18 65 20 4 5 72 35 3 8 41 16 2 7 10 48 52 90 102 62 42 18 17 46 65 103 92 80 28 15 64 13 5 23 50 70 14 24 20 43 16 16 35 51 2 1 54 41 84 106 37 0 3 15 78 28 25 34 44 106 23 36 106 22 4 12 35 77 6 29 8 6 7 13 98 86 4 4 51 36 9 2 0 0 1 3 97 106 7 4 31 59 4 4 38 36 12 9 39 75 3 4 10 9 7 14 58 44 4 4 1 0
0.11550914 -0.075000003 0.025894908 14 3 2 9 2 0 0 1 127 25 3 2 0 0 2 32 57 23 10 49 39 7 5 25 46 11 1 13 23 39 48 41 29 3 2 5 7 5 10 12 127 16 1 4 5 6 17 127 57 19 3 37 102 56 29 45 127 37 3 16 63 25 7 20 32 1 0 0 15 34 44 31 127 57 5 34 18 7 4 23 75 30 11 127 111 4 3 7 127 53 18 48 59 7 2 7 25 3 1 16 102 27 16 33 110 42 11 35 36 3 1 6 49 10 7 60 49 7 55 83 47 26 20 37 20 57 64 41 1 0
0.1293924 -0.075000003 0.024464604 28 11 1 6 14 3 2 7 16 4 1 13 97 48 28 38 118 2 0 2 17 12 22 139 16 1 0 47 139 17 7 19 52 11 2 2 4 4 4 18 55 34 10 34 75 40 27 36 139 67 4 10 48 8 10 92 10 1 0 28 139 11 2 7 44 19 4 3 3 1 2 5 80 19 8 27 79 52 6 19 139 31 6 28 65 11 1 31 9 2 2 72 139 8 1 3 20 15 1 0 0 0 1 2 42 26 6 9 35 18 3 6 119 52 37 12 45 8 1 5 4 5 18 18 139 34 1 2 1 0
0.076349229 -0.075000003 0.019874154 7 7 1 0 0 0 1 4 17 4 0 0 0 0 4 13 11 0 0 0 0 0 38 55 1 0 0 0 0 0 79 94 4 1 0 0 0 6 106 74 48 3 0 0 8 73 80 35 115 32 12 0 2 6 72 115 8 15 42 8 0 0 114 115 2 1 38 55 8 16 115 86 18 9 42 85 111 104 50 21 92 115 76 9 23 11 1 9 7 78 115 14 0 0 2 5 2 2 115 115 3 2 7 2 6 3 66 77 11 0 0 6 15 17 8 7 3 0 1 27 17 22 15 0 0 0 1 21 1 0
0.09991958 -0.075000003 0.018019356 1 0 7 43 84 15 2 2 1 0 1 4 94 65 9 5 1 0 0 0 1 10 71 26 4 0 0 0 0 17 44 5 16 1 1 14 36 21 5 11 42 2 1 3 125 84 6 28 125 11 0 1 23 51 125 125 6 1 0 2 77 125 103 12 8 2 6 17 38 49 12 6 47 14 10 72 105 13 0 4 125 125 21 24 41 11 6 21 17 31 30 78 125 44 11 3 1 0 1 8 82 40 6 2 8 3 1 21 85 22 0 1 44 82 50 12 2 1 0 1 13 18 60 65 22 0 0 1 1 0
0.10635145 -0.075000003 0.013571384 97 15 1 5 53 73 85 66 0 0 1 6 103 122 49 1 0 2 3 1 18 48 52 2 17 12 6 0 6 14 3 3 122 122 45 55 72 7 1 3 9 7 36 108 122 24 9 2 29 6 16 11 37 74 53 30 12 0 0 0 21 76 21 5 20 70 98 32 4 0 0 0 51 9 49 87 25 1 1 4 122 28 2 6 42 40 25 47 13 3 0 2 122 83 11 6 1 14 13 3 0 0 0 0 44 14 3 2 0 1 1 3 122 36 2 3 38 15 4 27 15 5 2 4 122 41 2 6 1 0
0.047807191 -0.075000003 0.0093970755 38 11 0 4 63 10 4 4 169 27 1 4 14 2 0 13 61 9 7 23 23 10 5 5 11 6 3 4 12 5 5 9 69 28 1 13 64 3 0 4 169 6 1 3 17 2 0 17 70 10 9 14 32 12 8 5 11 22 16 1 2 7 16 13 87 104 14 13 25 0 0 1 169 20 3 4 7 1 1 7 67 8 6 11 12 8 15 14 12 13 14 15 3 6 22 13 41 169 16 1 0 0 0 0 169 169 38 0 0 0 1 2 31 53 133 12 5 2 4 3 6 12 91 19 8 1 0 1 1 0
0.041618299 -0.075000003 0.059658431 7 4 135 122 2 0 0 2 144 11 47 109 2 0 0 58 76 1 2 45 48 1 0 60 15 1 2 25 43 24 10 20 40 5 70 45 2 0 0 2 144 29 19 12 7 0 0 40 93 13 23 58 78 5 1 32 64 12 19 6 7 30 23 50 24 8 1 1 2 6 5 1 135 126 119 3 2 1 1 1 20 68 144 14 14 3 1 8 17 65 144 0 0 1 1 9 0 1 0 0 0 1 1 0 1 11 30 0 0 0 0 0 1 9 70 0 0 0 0 1 0 11 77 0 0 1 3 3 1 0
0.016781215 -0.075000003 0.054483961 92 42 96 1 0 0 0 11 124 17 24 13 17 70 20 33 2 2 1 7 44 124 59 20 43 19 4 4 2 13 61 124 124 30 0 0 1 6 5 33 124 45 2 1 6 10 29 54 9 3 4 11 35 56 124 38 1 1 6 28 74 28 67 42 28 4 0 0 2 21 124 124 112 42 22 2 1 6 23 111 9 21 82 53 14 4 16 5 0 0 16 45 59 20 8 1 0 0 0 4 21 83 87 34 0 4 17 21 28 55 17 5 4 18 32 14 3 8 28 8 2 3 7 8 4 16 53 14 1 0
0.068137929 -0.075000003 0.053435151 13 4 3 93 7 4 12 26 3 1 1 128 83 34 3 1 4 1 0 11 38 110 34 7 0 0 1 2 3 65 17 0 1 1 30 128 5 1 1 5 25 15 20 128 25 3 1 3 128 44 7 11 9 63 59 46 6 5 1 2 48 128 34 4 3 2 20 128 5 1 0 1 81 13 21 106 2 0 0 19 128 30 4 5 5 4 3 68 15 5 2 8 54 115 12 12 1 0 8 79 4 0 1 18 53 5 3 15 1 0 13 128 117 5 21 14 1 1 5 94 13 14 22 20 18 10 11 11 1 0
0.035017963 -0.075000003 0.052473333 7 14 54 46 6 1 36 6 11 21 61 10 4 23 36 1 1 3 12 11 55 128 30 1 0 0 0 0 59 128 11 1 23 36 20 45 75 25 15 4 24 53 128 54 14 16 8 5 95 102 60 6 8 38 24 17 21 4 0 1 128 128 17 4 3 21 34 8 31 67 56 4 10 8 14 21 33 100 63 25 128 45 33 4 3 9 32 71 25 12 47 29 128 52 2 2 22 121 41 4 2 2 7 6 6 29 35 4 9 13 46 11 6 11 65 5 1 11 71 12 1 2 62 38 46 25 39 2 1 0
0.035017963 -0.075000003 0.052473333 55 4 2 3 5 4 15 120 30 8 34 68 62 5 3 17 24 48 68 20 10 4 22 41 52 42 4 1 47 9 6 12 36 5 10 14 41 12 6 29 15 23 31 99 67 24 10 9 128 60 14 14 7 5 22 51 56 13 6 28 42 1 8 15 64 7 1 7 70 15 5 9 33 5 2 9 34 66 128 45 61 6 7 39 26 15 96 103 9 9 47 128 38 2 1 3 66 45 29 21 43 3 0 1 52 32 128 54 5 2 24 13 0 1 128 128 16 3 22 5 0 0 44 128 15 1 1 0 1 0
0.027317746 -0.075000003 0.047208078 2 10 57 22 7 52 9 1 70 9 17 11 6 45 25 112 29 0 1 5 19 9 22 95 6 6 23 38 47 9 4 8 23 13 111 32 13 2 3 4 152 28 28 8 5 1 1 25 63 3 11 22 63 19 1 10 8 3 22 30 43 26 13 12 17 0 1 1 10 24 152 21 152 17 0 0 2 1 86 81 55 9 2 7 32 41 27 16 6 1 7 15 8 33 84 20 1 1 3 0 0 10 152 30 12 1 5 0 0 3 152 59 6 0 3 2 5 41 152 23 0 0 5 32 74 59 46 5 1 0
0.037442517 -0.075000003 0.044128936 32 79 13 6 6 43 90 17 75 132 74 11 2 2 8 9 16 54 90 121 15 1 0 1 3 12 24 44 15 15 4 0 8 8 23 113 51 25 40 5 132 74 23 48 11 2 4 26 87 25 12 83 37 5 0 16 22 17 47 70 15 5 2 13 19 5 3 43 132 80 11 7 132 73 3 14 16 15 4 15 59 64 7 19 45 36 2 5 15 18 20 21 49 38 6 10 4 6 1 0 31 132 12 2 111 13 0 0 3 102 29 27 56 29 5 7 10 15 4 10 2 3 4 11 34 34 18 7 1 0
0.13303098 -0.075000003 0.039138176 56 23 0 1 38 13 0 1 127 91 2 4 87 17 1 1 92 18 1 3 127 60 1 7 89 16 0 4 32 6 0 6 31 10 0 0 38 39 1 3 127 57 4 4 34 39 9 49 91 10 5 8 127 127 13 30 92 13 1 9 39 16 4 17 11 1 0 0 10 38 2 2 127 84 103 19 19 33 4 13 21 88 127 41 70 42 14 12 16 27 38 61 23 8 10 15 0 0 0 0 1 8 0 0 1 6 23 8 27 77 0 0 6 73 63 8 15 58 4 2 16 35 50 54 3 4 4 3 1 0
0.052032575 -0.075000003 0.038472351 1 0 0 28 96 105 64 1 39 2 4 83 73 15 5 40 49 4 10 10 4 36 19 75 3 7 6 0 4 79 96 3 3 1 1 133 133 8 1 0 133 8 2 81 76 2 1 55 50 11 20 8 16 16 3 32 0 23 41 2 3 8 12 0 12 6 4 133 133 0 0 0 133 68 4 36 30 0 0 5 40 23 10 22 20 8 0 2 3 7 14 18 12 2 0 1 6 5 9 133 64 1 1 0 104 116 1 8 4 0 0 0 28 85 6 12 14 3 4 1 4 9 4 8 7 10 16 1 1 0
0.041502014 -0.075000003 0.034854565 2 5 12 73 116 35 9 1 8 9 20 69 20 21 83 15 43 15 9 16 3 4 56 116 43 12 7 8 16 2 1 38 17 26 17 116 116 16 1 2 116 76 7 9 14 29 33 17 18 42 37 7 21 93 23 17 3 80 90 2 5 24 15 3 19 2 3 19 116 51 3 16 116 12 11 12 20 17 4 65 44 11 32 23 13 53 22 34 15 11 17 1 1 82 116 46 25 0 1 11 87 6 1 22 64 0 1 6 31 14 1 58 116 3 3 6 15 9 4 67 95 0 0 0 0 13 81 92 1 0
0.10647588 -0.075000003 0.032180883 46 14 26 41 1 0 0 3 131 24 4 6 11 14 24 59 9 3 1 26 131 107 28 13 4 6 3 3 59 26 0 1 88 8 2 10 0 0 0 5 131 43 7 8 12 16 8 44 27 8 8 35 131 131 11 17 0 0 1 2 76 110 1 0 49 18 0 0 0 1 2 6 131 131 77 9 3 1 3 18 34 54 85 58 101 41 3 6 1 0 1 6 125 69 7 9 8 3 0 0 0 2 8 67 19 28 11 13 13 8 36 76 31 52 55 31 19 7 8 7 3 5 20 38 42 11 5 9 1 0
0.014223175 -0.075000003 0.031490739 6 42 16 1 3 23 26 5 32 125 9 1 4 6 4 25 132 40 1 0 0 0 1 61 63 9 18 3 0 2 36 99 5 41 64 6 11 19 44 8 35 132 24 22 41 17 7 10 132 132 4 2 1 1 1 47 84 18 45 42 12 0 0 15 2 6 18 19 10 14 74 22 28 7 2 8 29 28 71 132 132 20 2 4 3 3 13 132 43 5 15 82 46 16 1 10 12 19 9 4 1 1 23 42 68 13 0 1 0 0 29 86 132 3 1 1 6 2 2 79 9 1 1 11 64 36 14 8 1 0
0.018496362 -0.075000003 0.031659298 33 113 9 1 2 1 1 15 128 35 2 0 0 0 0 60 50 18 58 14 0 0 19 72 2 23 116 3 0 3 51 9 69 127 14 11 21 9 5 24 128 112 4 4 2 0 1 38 40 11 48 87 30 1 1 3 0 10 128 37 6 0 0 0 51 4 0 1 11 14 42 128 128 11 3 9 7 4 3 128 18 4 17 94 73 33 2 4 0 8 62 23 10 12 11 0 71 8 0 0 0 0 11 60 118 5 1 1 10 4 1 48 5 1 1 8 76 50 26 5 0 1 3 1 11 30 66 0 1 0
0.092945099 -0.075000003 0.029289825 97 8 5 1 0 0 0 22 118 5 0 0 1 1 10 120 13 0 3 15 93 47 33 54 1 16 68 28 82 25 0 0 125 7 0 0 4 21 3 43 125 33 2 8 6 0 1 45 42 6 2 70 125 14 3 11 0 0 3 47 125 14 0 0 61 1 1 3 22 68 32 56 125 31 13 19 6 1 3 32 12 11 14 125 96 3 1 1 1 1 2 45 125 27 46 7 39 7 8 10 11 27 9 22 62 4 1 13 49 14 17 67 0 2 37 101 89 20 4 1 2 36 59 26 16 11 21 7 1 0
0.12887409 -0.075000003 0.029677602 32 7 1 8 43 7 0 3 72 68 2 10 118 10 0 1 101 59 5 11 91 55 2 3 19 11 0 1 82 57 0 1 38 13 0 1 43 20 0 2 92 25 1 1 124 74 3 7 124 44 0 0 79 55 6 28 18 6 0 1 124 84 1 3 19 16 3 8 25 3 0 0 45 20 3 1 51 65 33 27 124 78 3 1 43 53 22 68 21 14 1 0 124 124 2 5 7 7 2 3 3 1 0 1 29 38 3 3 14 8 7 4 71 94 7 4 31 22 10 3 28 45 11 7 118 74 1 1 1 0
0.13508958 -0.075000003 0.023036636 0 0 0 0 1 0 0 0 21 7 1 4 9 4 15 16 49 9 0 0 5 18 125 54 26 2 0 0 6 27 30 21 0 0 0 5 5 0 0 0 99 40 4 27 18 0 2 9 150 41 1 1 59 42 49 54 18 17 3 8 110 47 17 8 0 0 0 10 19 0 0 0 150 15 1 40 43 0 0 6 150 21 1 9 96 25 2 42 34 16 8 26 150 51 6 14 0 0 0 6 26 0 0 0 143 6 0 16 49 1 0 22 150 39 8 63 57 3 0 21 29 27 27 131 96 9 1 2 1 0
0.0044893571 -0.075000003 0.017680522 3 19 58 90 15 6 3 1 93 83 40 28 3 0 0 4 80 104 79 5 1 0 0 22 89 22 24 12 4 5 3 51 6 7 20 26 23 100 41 2 52 41 57 16 11 46 19 10 114 85 60 2 1 4 3 27 114 22 3 0 0 0 0 35 42 30 80 76 30 45 14 6 83 73 15 6 6 97 108 35 114 18 2 1 1 21 91 103 40 8 0 0 0 0 1 6 16 19 84 16 12 51 20 3 109 114 52 3 1 10 20 20 51 47 2 0 0 2 32 19 0 0 0 0 0 0 1 1 1 0
0.10284273 -0.075000003 0.017412094 0 0 0 19 104 32 2 1 0 0 0 0 40 31 64 18 2 0 0 0 0 31 63 6 99 20 1 0 0 4 5 10 13 1 1 25 89 30 4 15 115 4 1 4 34 47 118 123 10 1 1 4 92 123 120 29 23 24 5 0 12 63 19 4 35 9 4 79 56 2 0 2 123 116 35 33 22 7 6 32 22 24 37 123 123 63 8 8 3 1 2 10 41 88 19 6 8 6 1 14 74 1 0 0 29 83 62 13 1 0 0 0 45 17 65 71 6 0 1 15 51 2 2 4 40 47 20 37 1 0
0.10284273 -0.075000003 0.017412094 76 41 8 8 2 0 1 4 25 22 17 62 21 6 45 43 0 0 0 12 26 76 91 23 2 0 0 1 16 32 8 5 66 63 3 3 12 12 1 3 128 59 6 10 9 7 39 128 17 6 6 89 128 85 67 70 16 0 0 21 76 14 12 40 31 50 9 29 30 4 0 0 128 128 114 39 5 0 0 12 39 37 106 128 87 1 3 30 31 2 2 15 17 1 39 95 0 10 9 13 11 3 0 0 12 60 50 3 0 0 0 3 120 21 35 11 0 0 0 41 48 6 6 4 0 0 4 30 1 0
0.06453348 -0.075000003 0.0076330225 2 0 0 0 1 1 4 5 81 4 0 0 1 4 9 7 172 27 0 0 0 0 0 3 67 8 0 0 0 0 34 58 12 0 0 0 0 3 9 16 90 3 0 0 5 15 13 17 172 43 0 0 0 0 2 8 172 32 0 0 0 1 9 38 27 1 0 0 3 4 4 9 72 4 0 0 1 6 39 55 172 4 0 0 0 0 11 43 172 13 0 0 0 0 0 1 23 8 0 2 7 1 1 2 90 31 0 0 0 0 3 13 172 33 0 0 0 0 1 9 172 39 0 0 0 0 0 2 1 0
0.022416605 -0.075000003 0.0069279671 78 6 0 0 40 5 0 1 40 4 0 0 130 21 1 1 130 22 0 0 22 3 0 1 34 3 0 0 98 10 0 0 105 3 0 0 36 11 1 8 37 2 0 0 130 55 4 5 130 19 0 0 25 8 4 12 55 4 0 0 128 11 0 1 39 0 4 1 8 21 24 54 9 0 6 2 47 130 41 16 130 6 9 4 10 28 41 86 41 3 7 28 124 6 0 10 0 3 105 14 0 3 7 8 0 3 122 23 2 17 8 2 12 10 130 49 1 6 10 15 4 4 88 88 22 0 0 1 1 0
0.018874662 -0.075000003 0.0030086783 72 34 2 2 9 1 0 5 135 23 2 7 4 3 1 29 26 2 37 126 38 21 3 6 0 14 135 43 8 13 14 0 111 17 1 1 16 12 2 12 135 50 5 2 5 20 16 61 18 16 20 24 42 135 121 14 0 4 25 8 8 100 135 0 47 9 0 0 2 10 3 5 124 135 37 0 0 2 2 6 6 91 135 0 1 24 32 2 0 38 135 0 0 24 80 0 0 0 0 0 0 0 0 0 0 1 1 0 0 0 0 0 0 4 10 0 0 0 0 0 0 6 23 0 0 0 0 0 1 0
0.018874662 -0.075000003 0.0030086783 0 0 0 2 2 0 2 2 1 0 4 19 10 3 55 39 5 1 5 6 1 0 101 115 1 0 0 0 0 2 126 70 1 0 0 0 0 0 2 7 64 1 0 1 4 3 106 131 11 3 13 27 40 18 131 120 3 40 35 11 3 1 97 45 1 0 0 0 0 0 0 1 131 27 0 2 17 2 4 33 52 14 20 69 131 21 7 10 38 125 69 39 56 4 0 0 0 0 0 0 0 0 0 0 115 29 0 0 7 1 0 0 64 17 0 2 131 54 0 0 75 36 3 4 117 24 0 0 1 0
0.05177502 -0.075000003 0.057009574 15 1 0 0 0 0 0 3 149 2 1 1 0 0 4 74 99 7 18 21 2 1 65 51 0 3 43 13 2 20 72 1 38 2 0 0 0 0 0 3 149 16 1 1 0 1 2 67 96 10 6 14 6 26 19 29 1 1 10 5 7 29 11 6 25 10 1 0 0 0 1 1 149 149 0 0 0 0 2 13 85 149 7 1 6 13 18 11 2 9 15 0 3 20 56 5 21 3 0 0 0 0 10 39 74 68 0 0 0 0 103 149 47 137 24 1 0 5 72 48 2 28 110 9 6 20 17 2 1 0
0.11151701 -0.075000003 0.055243935 8 0 0 0 0 9 70 39 2 0 0 1 6 59 66 13 7 0 0 1 1 20 73 59 1 0 0 0 1 21 71 27 123 24 0 1 14 18 44 46 46 3 0 0 123 113 42 21 123 1 0 0 50 52 48 91 23 3 0 1 55 57 43 37 123 68 7 7 14 7 1 2 62 23 16 71 123 46 2 4 123 23 2 9 84 22 1 9 33 11 1 2 113 25 2 11 92 24 7 11 30 4 0 7 37 23 22 101 57 2 0 1 123 74 7 19 29 3 0 2 39 8 2 14 57 13 4 16 1 0
0.098226666 -0.075000003 0.048195355 22 53 38 1 18 28 16 16 145 118 33 2 4 2 0 15 93 87 23 3 2 1 1 8 16 31 34 28 92 30 0 1 76 2 0 8 119 30 6 19 145 9 0 1 22 10 4 65 53 32 10 2 15 30 8 30 41 24 15 7 64 11 1 13 48 8 1 11 145 50 14 20 145 68 1 4 24 7 3 16 67 12 2 8 20 30 18 24 19 6 10 11 28 12 13 25 24 9 4 10 145 38 2 5 145 60 15 2 26 8 3 28 83 31 60 23 29 28 14 15 34 27 41 8 7 9 11 23 1 0
0.10244173 -0.075000003 0.047176611 5 21 55 10 57 4 4 13 15 127 118 5 7 15 11 11 81 118 63 11 5 4 1 4 70 53 16 5 10 5 2 8 74 2 0 7 92 12 5 27 85 8 1 4 94 44 12 26 131 26 1 1 15 9 3 49 35 40 15 2 5 12 4 15 56 3 0 1 87 34 25 96 70 8 1 12 131 44 15 31 131 48 1 4 23 8 3 16 35 7 2 5 13 18 10 18 97 38 4 11 71 9 5 24 34 14 4 8 131 48 4 8 131 53 13 2 25 10 3 19 46 18 35 14 18 19 10 10 1 0
0.046306521 -0.075000003 0.044439867 29 14 6 25 23 3 3 17 110 8 3 22 37 9 6 54 34 0 2 11 52 10 5 30 1 1 4 22 17 6 2 0 15 12 22 137 50 2 4 16 137 63 27 58 11 1 0 7 66 2 0 12 103 12 1 3 1 0 4 27 27 21 10 1 26 6 8 137 64 10 50 61 137 38 20 20 10 1 13 137 51 10 24 10 72 12 11 14 0 1 14 25 12 33 37 10 59 46 7 15 23 20 64 46 40 51 80 6 9 51 35 44 4 39 137 13 6 18 48 4 0 3 137 119 5 19 35 2 1 0
0.041843187 -0.075000003 0.043101981 9 7 25 16 38 77 9 12 26 47 27 24 21 127 54 9 127 127 47 21 4 8 15 12 15 48 74 127 7 2 0 2 4 7 54 67 19 13 44 78 16 11 29 77 120 69 33 22 127 61 13 46 31 12 4 16 49 27 25 62 37 8 0 3 11 20 7 11 8 9 31 83 12 22 1 3 93 127 22 13 127 19 1 3 21 107 27 45 33 15 5 14 50 23 8 7 8 20 21 16 3 0 0 2 14 58 3 1 8 48 1 1 21 22 4 4 43 103 7 5 15 45 12 4 14 21 8 4 1 0
0.041843187 -0.075000003 0.043101981 21 11 20 18 26 11 6 28 28 15 6 37 27 3 3 16 108 20 4 15 25 6 2 20 8 1 1 8 39 7 1 2 16 0 0 34 29 16 49 46 30 17 15 127 84 3 5 21 127 62 14 33 19 3 1 20 20 2 0 3 53 16 8 4 0 1 2 63 127 80 64 8 29 16 4 109 90 18 66 74 127 39 55 9 9 13 22 88 11 12 106 17 16 8 9 7 1 5 29 80 127 48 11 1 90 85 11 18 72 27 20 19 42 23 34 9 6 53 47 20 13 4 62 9 1 15 127 47 1 0
0.12897602 -0.075000003 0.043208968 1 3 5 55 9 0 0 0 107 49 13 31 7 2 32 68 36 18 24 88 15 10 121 102 1 2 63 121 9 5 36 46 11 4 4 112 44 2 0 5 121 77 16 29 7 1 1 34 64 40 44 118 22 20 32 15 0 1 13 65 7 9 101 44 9 7 1 19 59 45 8 5 114 121 7 2 6 5 13 47 42 80 30 1 2 6 21 67 2 3 12 10 2 15 63 29 0 1 0 0 18 49 47 24 20 11 1 0 1 6 83 121 17 7 8 13 0 1 49 121 2 1 15 16 5 12 36 29 1 0
0.045729842 -0.075000003 0.040235847 7 13 104 54 4 5 49 45 9 38 105 23 33 36 18 35 4 124 97 6 13 22 10 5 5 48 31 2 2 12 12 8 9 12 4 24 17 9 85 47 41 6 5 35 45 61 55 35 15 29 16 2 7 58 124 53 10 28 16 2 0 1 111 59 5 5 2 10 114 111 122 11 124 21 4 15 79 18 8 11 35 7 38 14 6 9 48 13 0 3 49 17 2 1 22 6 1 2 1 3 124 90 20 1 81 101 6 11 124 14 0 0 26 58 8 12 20 10 0 1 1 9 10 14 15 2 3 1 1 0
0.045729842 -0.075000003 0.040235847 13 9 5 47 32 2 2 11 109 61 9 26 16 3 0 1 19 6 0 3 48 18 2 1 3 1 0 8 9 14 16 2 11 5 4 120 100 6 12 22 123 56 15 29 16 2 7 55 46 13 36 8 37 15 6 9 0 1 26 63 8 11 20 10 17 34 9 39 106 24 33 37 57 35 41 6 5 34 45 62 8 11 123 23 4 15 79 19 0 0 77 101 6 11 123 17 46 46 7 14 109 56 4 5 85 51 9 12 4 24 17 9 123 12 5 5 2 10 107 109 23 2 1 2 1 3 123 98 1 0
0.092787385 -0.075000003 0.038215164 121 16 21 1 0 0 1 34 121 4 2 5 10 10 13 47 5 4 3 11 29 44 12 2 9 11 6 57 58 4 1 1 121 20 0 0 0 10 38 43 121 40 1 3 13 15 24 57 10 1 1 13 121 64 24 9 0 0 1 33 121 44 6 0 50 12 8 0 1 19 72 83 121 22 8 28 21 3 9 92 12 16 16 88 96 10 4 1 24 24 6 3 44 81 66 22 121 17 10 0 0 0 2 64 36 1 1 7 67 23 16 74 2 16 18 63 121 9 1 0 62 121 21 17 7 10 14 14 1 0
0.13609645 -0.075000003 0.036051661 0 0 0 1 13 1 0 0 125 42 0 2 36 5 0 1 125 84 6 39 125 3 0 0 67 34 11 35 124 6 0 1 0 0 0 0 6 2 0 0 105 35 1 0 41 18 1 4 125 79 2 5 99 39 6 23 87 5 0 2 125 77 7 21 0 0 0 0 1 1 0 0 69 7 0 0 12 49 8 17 125 73 54 12 39 37 9 55 32 13 38 19 93 85 12 21 0 0 0 0 0 0 0 0 7 5 2 1 7 28 3 2 22 64 118 22 31 33 1 2 1 83 125 22 10 8 3 2 1 0
0.036738116 -0.075000003 0.035427198 12 12 3 7 99 17 0 0 56 42 4 16 76 3 0 0 61 39 22 5 0 1 17 9 0 0 25 6 0 1 42 9 4 17 19 27 105 19 9 12 56 64 8 22 131 50 5 6 131 74 2 1 2 4 42 74 11 0 1 1 0 0 131 69 5 41 39 20 21 19 48 6 49 21 41 40 65 80 11 19 131 88 25 3 3 12 17 73 34 39 131 41 1 0 61 37 6 2 4 39 106 22 22 4 59 7 31 50 32 7 4 93 87 37 43 15 2 0 0 71 7 28 94 30 15 3 0 1 1 0
0.043933123 -0.075000003 0.03073439 25 38 8 19 57 9 22 19 30 23 24 3 4 35 30 29 4 12 107 7 2 14 61 8 0 1 72 53 3 13 91 2 80 39 4 8 74 53 6 12 97 32 13 15 5 24 14 14 131 5 5 3 1 11 142 132 13 0 2 2 1 10 148 65 53 1 0 1 68 48 4 16 106 7 1 2 11 20 6 21 148 60 0 0 3 3 6 34 89 17 2 11 8 1 37 27 32 4 0 3 71 35 4 1 75 13 0 1 24 6 1 2 148 57 0 0 10 2 0 0 98 30 3 10 12 0 0 0 1 0
0.13565251 -0.075000003 0.027869347 0 0 0 1 1 0 0 0 59 19 3 19 7 0 1 4 150 20 1 1 31 23 29 50 7 2 2 5 68 38 15 7 0 0 0 3 4 0 0 0 117 16 1 33 35 0 0 2 150 39 4 29 61 12 2 19 19 16 19 65 126 26 2 5 0 0 0 2 7 0 0 0 130 5 0 11 48 1 0 18 150 32 7 72 78 0 0 25 67 28 22 128 112 0 0 4 0 0 0 0 6 2 0 0 108 5 0 3 33 9 2 22 150 12 2 19 99 16 4 40 70 1 0 18 109 15 4 32 1 0
0.13198334 -0.075000003 0.026490346 13 7 2 8 3 0 1 2 152 19 1 2 8 13 46 64 20 1 1 3 48 51 50 28 0 1 1 1 19 22 3 0 31 9 1 25 18 0 0 0 154 28 2 13 34 10 3 28 62 9 8 34 154 42 5 15 4 5 6 7 50 16 1 3 46 2 0 13 35 0 0 7 154 31 6 43 39 1 0 29 70 37 33 154 135 5 0 2 45 24 14 11 30 5 0 5 49 2 0 4 28 4 0 7 154 11 3 22 65 5 2 29 81 6 2 54 154 10 3 23 79 4 1 6 17 1 0 17 1 0
0.01422935 -0.075000003 0.017458476 21 6 3 2 4 24 18 26 118 14 1 0 0 0 8 69 163 7 0 0 2 2 2 63 35 2 14 5 24 46 34 11 9 12 29 13 8 22 11 12 104 77 38 0 0 1 2 23 163 66 2 1 12 4 1 34 39 2 51 57 87 31 10 13 1 2 5 1 3 59 52 8 88 11 6 0 0 11 15 106 163 15 1 5 15 4 1 91 44 1 3 38 123 59 12 4 0 1 7 4 12 56 24 2 95 7 0 1 4 18 12 50 163 10 2 10 6 4 0 47 23 2 35 55 33 42 15 1 1 0
0.032138389 -0.075000003 0.010715008 31 0 0 17 125 0 0 1 125 17 2 14 81 0 0 1 46 8 4 23 77 0 0 0 23 7 9 16 45 0 0 1 27 16 19 34 125 2 0 1 125 13 5 11 96 4 0 13 52 8 9 25 97 0 0 3 35 4 2 7 69 1 0 2 2 90 125 53 34 1 0 0 42 70 125 29 20 2 0 3 10 52 125 43 14 0 0 1 10 31 87 17 20 1 0 1 3 54 97 3 0 0 6 31 5 27 125 3 0 0 53 82 7 35 78 1 0 0 89 72 2 18 43 1 1 1 65 25 1 0
0.032138389 -0.075000003 0.010715008 101 4 0 0 4 28 3 55 126 54 37 1 0 0 2 85 17 28 126 2 0 1 27 15 1 14 126 0 0 1 31 1 126 4 0 0 47 82 5 25 126 31 21 2 0 2 42 67 5 9 95 4 0 10 126 14 2 12 78 0 0 1 126 20 80 1 0 0 86 76 7 33 126 45 14 0 0 1 10 50 9 23 99 0 0 2 50 8 4 20 80 0 0 0 42 8 42 1 1 1 66 28 2 16 91 17 18 1 1 1 9 30 2 6 69 1 0 1 35 5 8 14 46 1 0 1 25 7 1 0
0.092659727 -0.075000003 0.0052874144 15 76 22 0 0 0 0 1 140 55 3 0 0 0 0 22 106 10 4 44 36 3 2 40 9 3 8 131 89 3 1 2 39 89 6 0 0 0 0 0 140 89 8 5 1 0 0 28 98 21 20 140 63 0 0 13 9 13 10 140 64 0 0 0 25 36 0 0 0 0 0 0 121 140 79 7 0 0 0 4 14 62 140 140 23 0 0 1 8 23 21 72 9 0 0 0 0 1 0 0 0 0 0 0 1 17 11 0 0 0 0 0 0 15 38 6 0 0 0 0 6 23 6 2 0 0 0 0 1 0
0.014393031 -0.075000003 0.0044366722 0 2 17 9 26 59 22 0 40 2 1 1 12 46 20 55 155 2 1 2 1 1 1 155 70 1 15 38 60 43 7 23 14 58 72 28 37 5 0 0 114 45 10 14 28 8 1 11 155 27 6 19 12 15 7 67 34 6 95 122 46 78 41 9 30 25 3 4 30 2 0 2 115 22 1 2 7 6 5 14 155 102 14 1 5 23 15 43 16 46 60 8 17 132 134 7 0 0 0 0 0 0 0 0 5 0 0 0 0 0 0 1 21 21 5 0 0 0 0 0 1 18 31 0 0 1 1 0 1 0
0.0060543627 -0.075000003 0.0038077203 0 1 2 4 34 4 0 0 1 0 0 1 10 2 0 0 5 0 0 0 0 0 0 1 0 0 0 0 0 0 0 0 17 10 6 22 138 41 3 6 49 6 1 4 93 109 23 13 138 52 1 1 4 7 12 32 65 42 2 0 0 0 0 1 36 15 2 26 138 47 9 17 51 23 1 0 16 111 138 47 138 38 2 0 1 12 119 138 70 30 2 0 0 0 0 27 8 55 32 103 59 0 0 0 47 138 60 1 0 0 12 9 99 94 42 1 0 1 18 28 27 13 0 0 0 0 0 7 1 0
0.034766957 -0.075000003 0.057219781 6 0 0 0 0 0 0 2 83 0 0 0 0 0 45 134 85 16 0 0 0 2 124 125 46 53 21 2 4 6 15 11 40 1 0 0 0 0 0 7 142 9 0 1 3 1 5 118 57 9 15 27 33 9 36 60 9 21 24 11 33 34 8 2 36 16 2 6 4 0 0 1 142 142 2 4 5 1 0 10 80 57 5 20 47 51 25 7 38 22 3 2 7 40 27 25 9 7 1 4 25 17 7 9 142 125 1 2 3 1 8 50 84 142 59 4 1 16 13 8 38 49 37 0 0 13 24 43 1 0
0.10223922 -0.075000003 0.053188492 16 1 2 20 129 15 5 25 47 12 3 3 37 22 14 41 129 38 2 0 7 5 3 51 41 50 11 6 17 3 2 9 34 5 1 10 112 35 30 57 75 5 0 5 129 43 23 42 129 10 0 1 16 5 7 41 25 5 1 3 11 9 13 21 59 76 48 53 40 2 1 7 66 37 38 61 129 13 1 8 129 113 68 8 17 3 4 21 21 47 109 8 5 6 11 12 2 43 56 11 0 0 0 0 3 25 69 50 8 0 0 0 8 99 102 6 1 0 0 0 0 48 129 3 0 0 0 0 1 0
0.069509968 -0.075000003 0.048933174 5 1 0 5 39 92 84 2 10 12 2 10 59 94 81 15 16 14 1 0 0 68 115 15 0 0 0 0 0 66 115 0 16 5 4 82 92 3 1 1 35 52 11 100 115 4 2 4 115 112 23 21 2 19 36 8 9 28 47 19 1 39 87 1 4 2 24 115 29 1 0 1 69 9 4 92 78 1 0 13 115 30 26 103 27 0 0 21 23 115 67 71 10 0 0 0 23 4 27 58 8 22 10 19 33 14 8 9 27 42 22 8 29 19 26 73 30 14 12 3 16 31 16 21 12 5 13 5 1 0
0.069509968 -0.075000003 0.048933174 14 1 3 21 22 36 15 4 7 5 2 50 110 108 28 4 20 9 1 2 6 103 114 12 0 0 0 0 0 100 52 0 15 2 30 114 25 1 0 3 35 26 12 114 80 0 1 5 114 65 18 12 3 37 28 17 8 12 24 3 1 114 80 1 6 4 84 114 12 2 0 6 72 5 10 91 31 1 0 49 114 27 56 102 4 0 0 51 56 90 74 34 0 6 5 1 11 4 14 7 14 34 13 32 43 18 19 19 19 46 9 13 17 19 28 113 12 8 4 6 43 90 25 14 1 1 1 12 1 0
0.11072471 -0.075000003 0.047994789 59 3 0 18 120 28 8 14 98 8 3 10 53 43 29 39 42 0 1 4 45 54 56 77 3 0 0 1 28 56 83 12 66 9 2 30 120 2 0 5 106 40 52 83 31 2 0 5 120 27 15 29 48 5 3 27 8 3 0 14 100 19 14 8 27 16 8 37 91 29 3 2 89 17 17 71 38 2 1 16 120 21 3 11 9 9 7 54 16 2 0 10 113 26 11 25 7 9 3 3 17 120 99 5 65 2 5 13 3 97 77 33 120 16 13 4 3 7 10 41 5 3 15 41 54 9 2 6 1 0
0.12698056 -0.075000003 0.047783464 86 46 26 6 9 3 8 56 67 86 81 24 92 44 6 56 64 17 16 2 12 11 10 80 22 3 1 4 21 9 28 43 5 35 33 13 96 45 1 0 24 136 136 12 36 36 12 8 136 119 74 7 6 1 3 24 53 19 10 30 61 6 4 12 2 1 5 19 51 38 7 2 39 15 9 1 21 59 115 54 136 40 10 4 2 1 23 88 80 21 12 16 54 11 1 9 23 5 18 21 1 0 1 7 35 16 9 3 1 1 12 14 125 74 31 2 0 0 3 14 39 45 66 27 21 1 0 1 1 0
0.10318673 -0.075000003 0.040441278 7 4 65 73 3 2 5 5 47 25 82 84 5 4 3 3 130 24 9 8 25 33 28 54 7 3 15 52 110 43 12 7 0 0 31 74 11 33 51 9 101 11 19 26 12 21 32 21 130 52 11 49 62 9 3 25 11 5 4 80 130 23 28 27 1 0 24 66 7 11 52 58 30 1 5 17 7 4 107 121 102 27 8 19 17 6 33 114 6 4 10 19 33 19 82 83 8 3 2 5 4 5 67 92 11 1 1 3 6 7 53 47 33 9 29 47 1 1 18 66 4 11 82 69 2 2 17 13 1 0
0.070136219 -0.075000003 0.039197717 0 0 1 34 83 31 57 1 40 22 2 1 5 17 59 10 30 25 5 23 40 23 7 13 2 9 3 9 36 18 1 0 0 0 57 69 14 57 125 1 22 4 37 83 36 52 78 10 103 10 2 8 31 64 11 34 3 1 1 1 42 100 45 9 0 0 64 95 14 8 74 14 12 1 36 45 3 13 83 40 74 21 55 16 9 14 8 32 45 16 27 5 8 31 69 74 0 0 0 2 2 16 126 40 0 0 2 3 3 125 126 5 23 5 29 14 7 126 71 9 126 10 11 1 0 14 24 126 1 0
0.031026196 -0.075000003 0.038148552 27 30 1 16 47 3 0 0 54 48 33 5 1 0 15 15 10 10 44 6 0 0 51 37 25 15 6 4 55 28 16 42 38 26 6 19 79 32 1 5 134 48 5 3 6 6 42 100 18 6 41 21 1 1 134 107 2 0 55 66 46 29 70 48 45 7 20 46 49 19 5 22 134 89 61 7 3 4 3 45 17 35 134 134 33 3 14 11 4 11 134 134 37 5 4 2 26 1 2 9 50 24 12 51 47 18 31 25 4 1 0 32 24 18 28 30 76 19 0 1 7 8 17 30 84 43 24 23 1 0
0.018062981 -0.075000003 0.0284162 54 81 15 3 0 0 1 10 131 121 12 4 0 0 22 59 27 20 106 69 2 0 51 53 0 0 131 76 21 5 20 8 22 54 31 10 1 2 19 27 131 131 13 8 4 2 5 51 48 25 35 85 50 34 15 3 0 0 58 32 6 8 52 8 50 3 1 0 1 4 25 56 131 36 0 0 1 2 5 75 86 10 8 20 19 47 49 7 0 0 49 35 6 10 95 12 24 13 4 4 6 10 10 6 131 105 4 0 0 0 1 4 108 35 5 20 48 26 2 1 0 0 32 28 22 25 22 2 1 0
0.016985731 -0.075000003 0.053428918 1 0 2 41 79 133 87 8 8 2 4 21 62 53 26 12 60 7 2 0 1 1 5 43 31 18 5 0 0 0 0 27 5 6 24 133 133 35 6 10 93 40 42 74 33 10 18 35 35 13 21 6 7 13 31 33 51 61 17 3 2 3 15 9 3 6 13 76 129 133 22 6 64 27 99 56 66 55 23 25 40 133 133 18 4 4 8 8 28 37 1 0 1 3 28 15 7 20 11 19 85 18 2 6 3 4 20 61 133 12 1 1 20 73 26 11 12 1 0 1 4 16 0 0 0 0 0 0 1 0
0.016985731 -0.075000003 0.053428918 12 17 82 19 2 6 7 20 12 78 131 133 23 6 4 6 23 133 133 36 6 9 5 6 1 38 77 133 91 7 1 0 20 58 133 13 1 1 2 4 97 56 66 56 24 25 65 27 41 73 34 10 18 35 93 40 3 20 60 52 26 12 9 2 26 12 13 1 0 1 19 72 133 20 4 4 7 8 38 133 21 6 7 13 30 32 34 13 2 0 1 1 5 42 62 7 0 0 0 0 0 0 4 17 1 0 1 3 28 15 27 39 16 3 2 3 16 10 50 62 5 0 0 0 0 25 31 19 1 0
0.022063276 -0.075000003 0.04605379 112 85 0 1 1 1 0 2 46 59 9 4 8 11 16 11 34 10 4 1 4 51 75 57 7 11 11 1 12 97 102 13 55 52 1 0 2 18 44 59 61 117 92 14 18 16 12 29 126 99 38 5 15 7 17 48 47 3 0 19 126 57 32 15 3 4 5 10 10 35 65 51 39 14 10 20 45 68 27 46 126 100 59 11 9 5 8 54 25 40 118 34 71 17 6 4 2 3 5 9 15 25 17 7 7 11 5 18 33 19 2 2 16 50 89 34 7 4 1 2 9 58 126 38 3 1 0 0 1 0
0.10932546 -0.075000003 0.039094079 59 7 1 2 3 8 67 121 12 4 4 8 6 28 82 42 4 1 3 4 3 21 65 38 2 1 5 17 6 3 53 56 10 8 34 53 4 3 24 62 30 22 120 100 8 12 10 7 121 28 25 22 42 26 31 74 22 8 24 82 99 22 15 20 14 13 32 69 21 34 14 14 61 6 27 43 17 32 43 38 121 38 12 41 67 13 16 59 17 7 4 50 121 25 77 72 35 16 23 28 3 2 41 73 9 1 2 8 3 4 120 102 42 7 23 21 6 4 47 109 6 6 65 40 8 7 57 56 1 0
0.10099742 -0.075000003 0.028611409 15 0 0 0 1 72 64 94 15 1 5 16 6 9 105 119 2 2 20 54 24 6 52 84 0 1 42 91 20 2 4 4 11 7 31 46 5 27 44 63 25 16 96 119 13 2 21 43 105 26 49 70 81 37 11 32 5 5 22 65 119 36 4 6 26 10 45 71 33 29 9 14 63 10 30 94 84 56 11 27 119 66 22 26 87 23 6 43 5 7 9 20 119 65 32 35 45 19 12 26 32 9 6 25 23 2 5 30 56 22 14 55 26 15 28 59 12 2 6 39 4 11 31 33 14 5 5 8 1 0
0.10099742 -0.075000003 0.028611409 33 24 6 8 20 22 2 3 27 83 59 12 18 24 15 7 86 27 27 11 11 19 10 23 20 5 16 30 36 42 2 5 57 14 2 3 38 35 17 13 32 38 48 10 48 113 61 9 120 46 20 5 15 19 15 34 23 5 19 51 120 33 5 9 42 80 50 11 15 11 20 18 17 109 108 9 15 120 86 16 120 32 15 12 25 55 32 43 19 9 6 59 120 26 1 3 1 20 30 21 97 9 4 6 38 115 87 5 8 5 5 12 90 79 18 6 17 4 1 12 6 9 8 27 120 21 3 1 1 0
0.09292981 -0.075000003 0.026828635 20 17 5 6 6 6 48 28 128 9 1 2 4 4 16 72 37 8 4 20 75 52 11 10 6 10 3 6 33 123 71 5 52 84 9 1 0 0 20 25 128 35 1 3 21 9 7 75 26 38 24 52 128 21 5 16 16 128 68 17 21 49 42 6 40 19 0 0 0 0 117 89 128 25 7 15 23 3 39 81 15 11 10 47 128 40 21 4 35 69 27 5 33 46 49 9 38 104 4 0 0 0 12 15 55 53 1 10 33 5 14 21 10 23 11 33 81 20 22 9 13 21 12 6 26 67 42 9 1 0
0.09292981 -0.075000003 0.026828635 23 57 41 9 11 25 19 8 91 18 17 9 10 21 11 29 24 5 15 26 51 67 2 5 0 0 15 21 30 101 6 0 33 52 63 11 31 50 23 3 128 46 22 5 15 11 9 36 21 4 35 81 128 35 7 12 0 0 100 96 40 19 1 0 23 36 38 5 14 128 90 17 128 29 6 13 23 39 28 44 23 11 6 64 128 43 2 3 0 0 16 25 49 87 14 1 20 119 99 6 7 15 4 4 74 62 16 7 25 11 5 18 7 6 11 56 128 16 1 2 6 5 45 34 31 15 4 6 1 0
0.018896228 -0.075000003 0.011568245 68 13 0 1 8 19 14 45 164 33 0 4 5 5 3 70 46 2 30 48 31 45 41 10 0 0 37 45 53 38 39 0 56 13 0 1 13 57 41 26 164 32 0 4 15 7 5 59 70 3 19 43 93 69 14 5 0 0 26 39 87 45 25 0 35 14 17 29 27 40 22 13 164 59 3 9 7 7 7 33 62 11 20 72 41 63 79 6 0 0 29 50 122 63 75 0 13 14 11 14 23 1 0 0 150 31 1 0 0 2 3 4 37 3 0 0 2 26 78 7 0 0 0 2 64 47 59 0 1 0
0.074063927 -0.075000003 0.054429177 32 1 0 0 0 0 0 1 140 7 0 2 6 1 0 16 35 3 25 70 71 3 3 7 4 30 140 42 12 1 3 4 42 0 0 0 0 0 0 3 140 12 3 9 13 1 0 15 42 5 9 80 140 44 1 2 12 16 21 30 42 52 17 7 42 2 0 0 0 0 0 4 140 40 15 22 5 5 15 38 13 9 31 108 36 62 66 7 10 2 9 24 12 49 27 13 40 0 0 0 0 0 0 13 140 2 0 0 1 4 34 131 12 0 0 1 2 113 140 31 11 2 0 0 1 140 49 31 1 0
0.021396533 -0.075000003 0.037695508 100 82 6 1 1 1 3 10 43 31 7 2 4 27 62 51 11 20 6 1 16 122 114 18 4 50 34 0 3 23 49 10 49 59 22 3 10 26 41 41 126 107 26 5 10 10 12 46 78 12 11 26 126 66 33 22 5 0 0 1 29 41 50 43 11 6 3 16 32 28 19 12 126 106 110 15 7 6 4 27 23 113 126 34 31 5 3 6 4 73 90 1 8 16 11 18 0 2 1 4 44 16 2 0 1 12 46 25 28 15 1 0 15 75 76 15 4 5 4 11 7 75 99 0 0 0 3 10 1 0
0.084668711 -0.075000003 0.025804566 4 12 12 33 19 16 11 1 53 26 18 25 14 8 22 45 128 21 2 1 11 9 5 57 15 5 4 9 68 78 22 6 1 8 31 61 52 26 15 5 92 84 18 5 1 2 22 54 128 35 1 5 37 7 4 65 17 36 38 42 128 19 9 7 6 7 10 22 57 66 50 18 68 35 2 0 0 2 81 128 128 26 3 8 38 4 17 122 9 8 8 17 128 59 31 4 9 34 23 44 40 2 1 1 48 128 13 0 0 0 2 14 59 128 8 17 24 2 2 16 2 21 26 53 54 10 8 2 1 0
0.10232025 -0.075000003 0.02611443 23 1 0 0 2 72 78 57 13 1 5 10 2 27 111 111 3 1 16 44 14 7 106 107 5 2 43 98 19 3 9 17 47 7 37 29 3 12 35 82 13 11 92 111 28 13 41 50 109 36 67 87 79 25 10 19 9 9 21 69 111 36 12 15 58 42 89 22 6 3 1 17 36 11 17 61 111 45 10 28 111 34 26 44 55 18 8 51 7 9 23 30 85 39 37 35 55 39 11 4 5 0 0 19 10 12 21 47 31 9 4 14 7 3 50 82 2 2 5 19 2 5 64 31 4 8 7 4 1 0
0.10232025 -0.075000003 0.02611443 58 16 4 2 1 1 9 24 12 34 13 2 8 53 35 17 55 6 5 2 8 48 38 84 9 1 0 5 44 116 14 12 102 12 2 2 14 15 4 11 25 69 63 13 38 56 23 6 116 63 37 11 25 14 12 24 16 2 21 107 108 37 1 4 79 26 14 5 9 7 7 34 35 80 71 8 18 116 88 19 116 31 15 14 50 44 40 45 14 4 7 64 116 36 1 2 27 20 15 17 71 10 4 14 33 109 91 14 33 11 9 7 97 84 21 10 39 5 3 11 5 5 6 41 116 34 12 3 1 0
0.018974507 -0.075000003 0.023054333 23 30 18 27 3 1 0 4 137 89 10 3 1 3 54 88 30 18 73 53 24 14 114 100 11 0 13 61 137 29 17 12 27 12 3 8 6 24 19 29 137 63 7 4 2 5 6 87 52 15 50 58 26 47 26 11 21 1 10 38 94 53 10 8 24 3 0 0 6 52 24 12 137 38 0 2 5 8 8 32 71 8 5 41 53 38 7 4 15 13 7 42 121 22 2 0 4 2 1 8 25 34 16 4 137 32 3 5 6 8 8 18 65 10 1 11 32 37 33 6 2 12 5 24 137 45 14 0 1 0
0.08225932 -0.075000003 0.042147119 2 3 1 2 11 40 109 16 3 8 14 0 0 0 130 36 0 5 8 0 4 25 130 16 0 1 1 1 23 62 73 5 3 17 22 78 103 25 17 4 9 52 130 37 4 1 24 11 67 91 62 4 18 14 25 7 9 5 3 5 110 68 12 2 0 1 5 61 95 112 9 0 34 18 26 40 27 7 2 13 130 32 5 2 9 6 2 37 28 6 14 15 47 62 25 5 0 0 0 6 130 130 10 0 28 12 6 14 42 27 18 43 130 17 0 1 13 1 2 71 22 7 11 13 74 28 7 4 1 0
0.089591175 -0.075000003 0.053089119 3 0 0 0 0 0 0 2 92 21 6 4 0 1 16 48 48 24 37 14 1 3 46 70 35 6 3 6 18 15 44 40 2 0 0 0 0 0 0 1 124 9 1 2 1 1 20 108 50 8 47 35 5 3 105 124 12 16 124 7 8 19 53 52 1 0 0 0 0 0 0 0 124 44 1 9 9 0 1 14 69 24 64 107 124 16 5 9 2 30 124 27 16 15 22 8 0 0 0 0 0 0 0 0 124 24 0 2 3 1 6 36 57 14 1 10 56 84 114 49 14 1 1 1 7 39 124 124 1 0
0.053216465 -0.075000003 0.021730121 5 0 0 0 6 15 3 3 62 0 0 0 3 4 1 19 14 0 0 0 25 15 1 6 11 1 0 1 5 1 0 2 39 4 1 19 59 54 9 16 150 37 4 6 22 18 3 95 102 12 5 24 150 101 7 37 74 4 0 18 65 11 3 20 37 10 1 28 84 16 9 8 150 150 31 16 8 2 4 25 77 82 69 112 77 6 1 10 54 10 21 48 95 4 1 20 7 12 33 6 13 23 15 8 78 67 46 2 0 2 7 31 25 39 121 28 1 0 0 2 19 22 101 70 14 1 1 3 1 0
0.073243104 -0.075000003 0.030546058 23 0 0 0 0 1 2 24 8 0 0 0 18 16 5 11 50 0 0 0 7 3 1 30 4 0 0 0 8 2 1 3 92 40 2 4 6 2 3 34 105 14 2 47 111 28 8 32 153 91 21 24 58 13 6 124 43 16 15 41 116 26 7 28 50 125 9 3 5 0 0 0 76 56 22 22 56 27 12 22 153 153 84 17 8 3 5 29 28 83 153 77 44 2 0 7 3 14 2 0 0 0 0 0 6 21 13 1 1 0 0 1 16 63 47 2 0 0 0 1 12 26 112 16 1 0 1 4 1 0
