# .PCD v0.7 - Point Cloud Data file format
VERSION 0.7
FIELDS x y z rgb
SIZE 4 4 4 4
TYPE F F F F
COUNT 1 1 1 1
WIDTH 1199
HEIGHT 1
VIEWPOINT 0 0 0 1 0 0 0
POINTS 1199
DATA ascii
0.0060000001 -0.077 0.0099999998 2.2137685e-39
0.0060000001 -0.077 0.0089999996 2.1215785e-39
0.0060000001 -0.077 0.0080000004 2.3052481e-39
0.0060000001 -0.077 0.0070000002 2.4896407e-39
0.0060000001 -0.077 0.0060000001 7.0122769e-39
0.0060000001 -0.077 0.0049999999 1.9085574e-38
0.0060000001 -0.077 0.0040000002 2.3509884e-38
0.0060000001 -0.077 0.003 2.3509886e-38
0.0060000001 -0.077 0.0020000001 2.3509886e-38
0.0060000001 -0.077 0.001 2.3509886e-38
0.0070000002 -0.077 0.057999998 4.3353526e-39
0.0070000002 -0.077 0.057 3.5974274e-39
0.0070000002 -0.077 0.056000002 2.6758285e-39
0.0070000002 -0.077 0.055 3.1335724e-39
0.0070000002 -0.077 0.054000001 2.5825622e-39
0.0070000002 -0.077 0.052999999 2.4903596e-39
0.0070000002 -0.077 0.052000001 2.4903568e-39
0.0070000002 -0.077 0.050999999 2.3052481e-39
0.0070000002 -0.077 0.050000001 2.1230148e-39
0.0070000002 -0.077 0.048999999 2.3981598e-39
0.0070000002 -0.077 0.048 2.5825594e-39
0.0070000002 -0.077 0.046999998 2.3052467e-39
0.0070000002 -0.077 0.046 2.214493e-39
0.0070000002 -0.077 0.045000002 2.2148559e-39
0.0070000002 -0.077 0.044 2.4896365e-39
0.0070000002 -0.077 0.043000001 2.0308234e-39
0.0070000002 -0.077 0.041999999 2.1219386e-39
0.0070000002 -0.077 0.041000001 2.21413e-39
0.0070000002 -0.077 0.039999999 2.2134126e-39
0.0070000002 -0.077 0.039000001 2.2137699e-39
0.0070000002 -0.077 0.037999999 1.9379075e-39
0.0070000002 -0.077 0.037 2.2137699e-39
0.0070000002 -0.077 0.035999998 1.9379019e-39
0.0070000002 -0.077 0.035 2.3056012e-39
0.0070000002 -0.077 0.034000002 2.3970794e-39
0.0070000002 -0.077 0.033 2.0293829e-39
0.0070000002 -0.077 0.032000002 2.121217e-39
0.0070000002 -0.077 0.030999999 2.0301003e-39
0.0070000002 -0.077 0.029999999 2.3059641e-39
0.0070000002 -0.077 0.028999999 2.0300919e-39
0.0070000002 -0.077 0.028000001 1.8457105e-39
0.0070000002 -0.077 0.027000001 2.0301045e-39
0.0070000002 -0.077 0.026000001 2.0297374e-39
0.0070000002 -0.077 0.025 2.1212156e-39
0.0070000002 -0.077 0.024 2.2137699e-39
0.0070000002 -0.077 0.023 2.3048879e-39
0.0070000002 -0.077 0.022 2.3970808e-39
0.0070000002 -0.077 0.021 2.3041733e-39
0.0070000002 -0.077 0.02 2.0297444e-39
0.0070000002 -0.077 0.018999999 2.0304549e-39
0.0070000002 -0.077 0.017999999 1.9379061e-39
0.0070000002 -0.077 0.017000001 2.2134098e-39
0.0070000002 -0.077 0.016000001 2.2141272e-39
0.0070000002 -0.077 0.015 2.3977996e-39
0.0070000002 -0.077 0.014 2.3056054e-39
0.0070000002 -0.077 0.013 2.3056082e-39
0.0070000002 -0.077 0.012 2.3052425e-39
0.0070000002 -0.077 0.011 1.9375474e-39
0.0070000002 -0.077 0.0099999998 2.1219358e-39
0.0070000002 -0.077 0.0089999996 2.213414e-39
0.0070000002 -0.077 0.0080000004 2.1215743e-39
0.0070000002 -0.077 0.0070000002 2.2130665e-39
0.0070000002 -0.077 0.0060000001 1.2817348e-38
0.0070000002 -0.077 0.0049999999 2.2399904e-38
0.0070000002 -0.077 0.0040000002 2.3509886e-38
0.0070000002 -0.077 0.003 2.3509886e-38
0.0070000002 -0.077 0.0020000001 2.3509886e-38
0.0070000002 -0.077 0.001 2.3509886e-38
0.0080000004 -0.077 0.057999998 5.1629581e-39
0.0080000004 -0.077 0.057 3.2293652e-39
0.0080000004 -0.077 0.056000002 2.7673108e-39
0.0080000004 -0.077 0.055 2.7665906e-39
0.0080000004 -0.077 0.054000001 2.6751054e-39
0.0080000004 -0.077 0.052999999 2.3059697e-39
0.0080000004 -0.077 0.052000001 2.5818322e-39
0.0080000004 -0.077 0.050999999 2.3988842e-39
0.0080000004 -0.077 0.050000001 2.2134112e-39
0.0080000004 -0.077 0.048999999 2.1215743e-39
0.0080000004 -0.077 0.048 2.1226561e-39
0.0080000004 -0.077 0.046999998 2.3981668e-39
0.0080000004 -0.077 0.046 2.4896365e-39
0.0080000004 -0.077 0.045000002 2.3981626e-39
0.0080000004 -0.077 0.044 2.2148503e-39
0.0080000004 -0.077 0.043000001 2.3970864e-39
0.0080000004 -0.077 0.041999999 2.21413e-39
0.0080000004 -0.077 0.041000001 2.4892834e-39
0.0080000004 -0.077 0.039999999 2.3056082e-39
0.0080000004 -0.077 0.039000001 2.0301003e-39
0.0080000004 -0.077 0.037999999 2.0297458e-39
0.0080000004 -0.077 0.037 2.0297444e-39
0.0080000004 -0.077 0.035999998 2.1222903e-39
0.0080000004 -0.077 0.035 2.3052467e-39
0.0080000004 -0.077 0.034000002 2.2141272e-39
0.0080000004 -0.077 0.033 2.3041733e-39
0.0080000004 -0.077 0.032000002 2.1215785e-39
0.0080000004 -0.077 0.030999999 2.1226561e-39
0.0080000004 -0.077 0.029999999 2.3048837e-39
0.0080000004 -0.077 0.028999999 2.0290213e-39
0.0080000004 -0.077 0.028000001 2.3963633e-39
0.0080000004 -0.077 0.027000001 2.0301017e-39
0.0080000004 -0.077 0.026000001 2.3059627e-39
0.0080000004 -0.077 0.025 2.2148503e-39
0.0080000004 -0.077 0.024 2.0301003e-39
0.0080000004 -0.077 0.023 1.938269e-39
0.0080000004 -0.077 0.022 2.1215729e-39
0.0080000004 -0.077 0.021 2.6722271e-39
0.0080000004 -0.077 0.02 2.3977996e-39
0.0080000004 -0.077 0.018999999 2.1219302e-39
0.0080000004 -0.077 0.017999999 2.3048879e-39
0.0080000004 -0.077 0.017000001 2.3056082e-39
0.0080000004 -0.077 0.016000001 2.1215827e-39
0.0080000004 -0.077 0.015 2.1212085e-39
0.0080000004 -0.077 0.014 2.2130581e-39
0.0080000004 -0.077 0.013 2.3981542e-39
0.0080000004 -0.077 0.012 2.2134154e-39
0.0080000004 -0.077 0.011 2.1226533e-39
0.0080000004 -0.077 0.0099999998 2.4896379e-39
0.0080000004 -0.077 0.0089999996 2.3977996e-39
0.0080000004 -0.077 0.0080000004 2.3052551e-39
0.0080000004 -0.077 0.0070000002 4.2356138e-39
0.0080000004 -0.077 0.0060000001 1.8255075e-38
0.0080000004 -0.077 0.0049999999 2.2958873e-38
0.0080000004 -0.077 0.0040000002 2.3509886e-38
0.0080000004 -0.077 0.003 2.3509886e-38
0.0080000004 -0.077 0.0020000001 2.3509886e-38
0.0080000004 -0.077 0.001 2.3509886e-38
0.0089999996 -0.077 0.057999998 4.9774822e-39
0.0089999996 -0.077 0.057 3.0428215e-39
0.0089999996 -0.077 0.056000002 2.8598624e-39
0.0089999996 -0.077 0.055 2.4917987e-39
0.0089999996 -0.077 0.054000001 2.5821979e-39
0.0089999996 -0.077 0.052999999 2.1230148e-39
0.0089999996 -0.077 0.052000001 2.4896365e-39
0.0089999996 -0.077 0.050999999 1.8449958e-39
0.0089999996 -0.077 0.050000001 2.3995947e-39
0.0089999996 -0.077 0.048999999 2.3988884e-39
0.0089999996 -0.077 0.048 2.3985241e-39
0.0089999996 -0.077 0.046999998 2.4892778e-39
0.0089999996 -0.077 0.046 2.398164e-39
0.0089999996 -0.077 0.045000002 2.214493e-39
0.0089999996 -0.077 0.044 2.3974479e-39
0.0089999996 -0.077 0.043000001 2.3063257e-39
0.0089999996 -0.077 0.041999999 2.1226547e-39
0.0089999996 -0.077 0.041000001 2.3974451e-39
0.0089999996 -0.077 0.039999999 2.1215799e-39
0.0089999996 -0.077 0.039000001 2.3052523e-39
0.0089999996 -0.077 0.037999999 2.3052453e-39
0.0089999996 -0.077 0.037 2.3052509e-39
0.0089999996 -0.077 0.035999998 1.8453489e-39
0.0089999996 -0.077 0.035 2.1222931e-39
0.0089999996 -0.077 0.034000002 2.3056054e-39
0.0089999996 -0.077 0.033 2.1208624e-39
0.0089999996 -0.077 0.032000002 2.2130553e-39
0.0089999996 -0.077 0.030999999 2.3041719e-39
0.0089999996 -0.077 0.029999999 2.3056096e-39
0.0089999996 -0.077 0.028999999 1.9379075e-39
0.0089999996 -0.077 0.028000001 2.1215771e-39
0.0089999996 -0.077 0.027000001 2.3052467e-39
0.0089999996 -0.077 0.026000001 2.3970808e-39
0.0089999996 -0.077 0.025 2.2126937e-39
0.0089999996 -0.077 0.024 2.2130468e-39
0.0089999996 -0.077 0.023 2.0293773e-39
0.0089999996 -0.077 0.022 2.8566156e-39
0.0089999996 -0.077 0.021 2.3970822e-39
0.0089999996 -0.077 0.02 1.9382648e-39
0.0089999996 -0.077 0.018999999 2.2134154e-39
0.0089999996 -0.077 0.017999999 2.2137685e-39
0.0089999996 -0.077 0.017000001 2.4889205e-39
0.0089999996 -0.077 0.016000001 2.3056054e-39
0.0089999996 -0.077 0.015 2.0300975e-39
0.0089999996 -0.077 0.014 2.1212184e-39
0.0089999996 -0.077 0.013 2.3048893e-39
0.0089999996 -0.077 0.012 2.4892764e-39
0.0089999996 -0.077 0.011 2.1215757e-39
0.0089999996 -0.077 0.0099999998 2.3974437e-39
0.0089999996 -0.077 0.0089999996 2.398164e-39
0.0089999996 -0.077 0.0080000004 2.4892792e-39
0.0089999996 -0.077 0.0070000002 8.6653214e-39
0.0089999996 -0.077 0.0060000001 2.0281238e-38
0.0089999996 -0.077 0.0049999999 2.3509886e-38
0.0089999996 -0.077 0.0040000002 2.3509886e-38
0.0089999996 -0.077 0.003 2.3509886e-38
0.0089999996 -0.077 0.0020000001 2.3509886e-38
0.0089999996 -0.077 0.001 2.3509886e-38
0.0099999998 -0.077 0.057999998 4.7008939e-39
0.0099999998 -0.077 0.057 2.9516979e-39
0.0099999998 -0.077 0.056000002 2.8587834e-39
0.0099999998 -0.077 0.055 2.5821965e-39
0.0099999998 -0.077 0.054000001 2.4903582e-39
0.0099999998 -0.077 0.052999999 2.582551e-39
0.0099999998 -0.077 0.052000001 2.3063327e-39
0.0099999998 -0.077 0.050999999 2.2134168e-39
0.0099999998 -0.077 0.050000001 2.3056082e-39
0.0099999998 -0.077 0.048999999 3.1364465e-39
0.0099999998 -0.077 0.048 3.5138344e-39
0.0099999998 -0.077 0.046999998 2.1226547e-39
0.0099999998 -0.077 0.046 2.5811147e-39
0.0099999998 -0.077 0.045000002 2.3981612e-39
0.0099999998 -0.077 0.044 2.3052509e-39
0.0099999998 -0.077 0.043000001 2.2134154e-39
0.0099999998 -0.077 0.041999999 2.3059697e-39
0.0099999998 -0.077 0.041000001 2.2141343e-39
0.0099999998 -0.077 0.039999999 2.0301003e-39
0.0099999998 -0.077 0.039000001 2.2141357e-39
0.0099999998 -0.077 0.037999999 2.0297444e-39
0.0099999998 -0.077 0.037 2.122296e-39
0.0099999998 -0.077 0.035999998 2.2134098e-39
0.0099999998 -0.077 0.035 2.029743e-39
0.0099999998 -0.077 0.034000002 2.2134098e-39
0.0099999998 -0.077 0.033 2.1212212e-39
0.0099999998 -0.077 0.032000002 2.3056124e-39
0.0099999998 -0.077 0.030999999 2.1215757e-39
0.0099999998 -0.077 0.029999999 2.2137699e-39
0.0099999998 -0.077 0.028999999 2.3974353e-39
0.0099999998 -0.077 0.028000001 2.0290255e-39
0.0099999998 -0.077 0.027000001 2.2134084e-39
0.0099999998 -0.077 0.026000001 2.1226519e-39
0.0099999998 -0.077 0.025 2.1219358e-39
0.0099999998 -0.077 0.024 2.3052411e-39
0.0099999998 -0.077 0.023 1.937546e-39
0.0099999998 -0.077 0.022 2.2134126e-39
0.0099999998 -0.077 0.021 1.9375474e-39
0.0099999998 -0.077 0.02 2.3974395e-39
0.0099999998 -0.077 0.018999999 2.3063257e-39
0.0099999998 -0.077 0.017999999 2.3059627e-39
0.0099999998 -0.077 0.017000001 2.1204981e-39
0.0099999998 -0.077 0.016000001 2.2137643e-39
0.0099999998 -0.077 0.015 2.3974423e-39
0.0099999998 -0.077 0.014 2.0301003e-39
0.0099999998 -0.077 0.013 2.2137727e-39
0.0099999998 -0.077 0.012 2.4889205e-39
0.0099999998 -0.077 0.011 2.1222931e-39
0.0099999998 -0.077 0.0099999998 2.4896379e-39
0.0099999998 -0.077 0.0089999996 2.3056082e-39
0.0099999998 -0.077 0.0080000004 2.3981696e-39
0.0099999998 -0.077 0.0070000002 1.3183263e-38
0.0099999998 -0.077 0.0060000001 2.2492125e-38
0.0099999998 -0.077 0.0049999999 2.3509886e-38
0.0099999998 -0.077 0.0040000002 2.3509886e-38
0.0099999998 -0.077 0.003 2.3509886e-38
0.0099999998 -0.077 0.0020000001 2.3509886e-38
0.0099999998 -0.077 0.001 2.3509886e-38
0.011 -0.077 0.057999998 4.2406346e-39
0.011 -0.077 0.057 2.9502616e-39
0.011 -0.077 0.056000002 2.4917987e-39
0.011 -0.077 0.055 2.6747481e-39
0.011 -0.077 0.054000001 2.4907211e-39
0.011 -0.077 0.052999999 2.5821951e-39
0.011 -0.077 0.052000001 2.3063299e-39
0.011 -0.077 0.050999999 2.0304591e-39
0.011 -0.077 0.050000001 2.3056082e-39
0.011 -0.077 0.048999999 2.0297444e-39
0.011 -0.077 0.048 2.213414e-39
0.011 -0.077 0.046999998 2.9520524e-39
0.011 -0.077 0.046 2.2141314e-39
0.011 -0.077 0.045000002 2.21413e-39
0.011 -0.077 0.044 2.2137685e-39
0.011 -0.077 0.043000001 2.1212212e-39
0.011 -0.077 0.041999999 2.2137685e-39
0.011 -0.077 0.041000001 2.0301017e-39
0.011 -0.077 0.039999999 2.0297402e-39
0.011 -0.077 0.039000001 2.0301017e-39
0.011 -0.077 0.037999999 1.938625e-39
0.011 -0.077 0.037 2.2137783e-39
0.011 -0.077 0.035999998 1.9382662e-39
0.011 -0.077 0.035 2.1219358e-39
0.011 -0.077 0.034000002 2.0293843e-39
0.011 -0.077 0.033 2.2137769e-39
0.011 -0.077 0.032000002 2.1226505e-39
0.011 -0.077 0.030999999 2.1215799e-39
0.011 -0.077 0.029999999 2.3967234e-39
0.011 -0.077 0.028999999 2.1219372e-39
0.011 -0.077 0.028000001 2.2134126e-39
0.011 -0.077 0.027000001 2.3974395e-39
0.011 -0.077 0.026000001 2.1215799e-39
0.011 -0.077 0.025 2.3056054e-39
0.011 -0.077 0.024 2.2137685e-39
0.011 -0.077 0.023 1.9379033e-39
0.011 -0.077 0.022 2.3048879e-39
0.011 -0.077 0.021 2.3056082e-39
0.011 -0.077 0.02 2.3045306e-39
0.011 -0.077 0.018999999 2.3048851e-39
0.011 -0.077 0.017999999 2.2137657e-39
0.011 -0.077 0.017000001 2.3056054e-39
0.011 -0.077 0.016000001 2.3974395e-39
0.011 -0.077 0.015 2.2148517e-39
0.011 -0.077 0.014 2.3052439e-39
0.011 -0.077 0.013 2.2134168e-39
0.011 -0.077 0.012 2.3056026e-39
0.011 -0.077 0.011 2.4889177e-39
0.011 -0.077 0.0099999998 2.3978038e-39
0.011 -0.077 0.0089999996 2.2130553e-39
0.011 -0.077 0.0080000004 3.777881e-39
0.011 -0.077 0.0070000002 1.8071408e-38
0.011 -0.077 0.0060000001 2.3232939e-38
0.011 -0.077 0.0049999999 2.3509886e-38
0.011 -0.077 0.0040000002 2.3509886e-38
0.011 -0.077 0.003 2.3509886e-38
0.011 -0.077 0.0020000001 2.3509886e-38
0.011 -0.077 0.001 2.3509886e-38
0.012 -0.077 0.057999998 3.8725738e-39
0.012 -0.077 0.057 3.1346458e-39
0.012 -0.077 0.056000002 2.7673038e-39
0.012 -0.077 0.055 2.6743879e-39
0.012 -0.077 0.054000001 2.4892848e-39
0.012 -0.077 0.052999999 2.39888e-39
0.012 -0.077 0.052000001 2.3974465e-39
0.012 -0.077 0.050999999 2.3056068e-39
0.012 -0.077 0.050000001 2.2137811e-39
0.012 -0.077 0.048999999 2.1215813e-39
0.012 -0.077 0.048 2.3052523e-39
0.012 -0.077 0.046999998 2.0300989e-39
0.012 -0.077 0.046 2.7673024e-39
0.012 -0.077 0.045000002 2.0304661e-39
0.012 -0.077 0.044 2.3052495e-39
0.012 -0.077 0.043000001 2.3063215e-39
0.012 -0.077 0.041999999 2.3048921e-39
0.012 -0.077 0.041000001 2.2144902e-39
0.012 -0.077 0.039999999 2.2137741e-39
0.012 -0.077 0.039000001 2.0304605e-39
0.012 -0.077 0.037999999 2.3045264e-39
0.012 -0.077 0.037 2.1212198e-39
0.012 -0.077 0.035999998 2.0304591e-39
0.012 -0.077 0.035 2.1226505e-39
0.012 -0.077 0.034000002 2.3974395e-39
0.012 -0.077 0.033 2.3056068e-39
0.012 -0.077 0.032000002 2.1215743e-39
0.012 -0.077 0.030999999 2.2141244e-39
0.012 -0.077 0.029999999 2.305611e-39
0.012 -0.077 0.028999999 2.8580589e-39
0.012 -0.077 0.028000001 1.8460678e-39
0.012 -0.077 0.027000001 2.3977996e-39
0.012 -0.077 0.026000001 2.213414e-39
0.012 -0.077 0.025 2.2126937e-39
0.012 -0.077 0.024 1.9379019e-39
0.012 -0.077 0.023 2.2134112e-39
0.012 -0.077 0.022 2.3052509e-39
0.012 -0.077 0.021 2.2137671e-39
0.012 -0.077 0.02 2.1219358e-39
0.012 -0.077 0.018999999 2.2134112e-39
0.012 -0.077 0.017999999 2.0300961e-39
0.012 -0.077 0.017000001 2.2141328e-39
0.012 -0.077 0.016000001 2.4885575e-39
0.012 -0.077 0.015 1.8460678e-39
0.012 -0.077 0.014 2.3977982e-39
0.012 -0.077 0.013 2.4896351e-39
0.012 -0.077 0.012 2.2134112e-39
0.012 -0.077 0.011 2.3052453e-39
0.012 -0.077 0.0099999998 2.3981626e-39
0.012 -0.077 0.0089999996 2.765513e-39
0.012 -0.077 0.0080000004 1.0226155e-38
0.012 -0.077 0.0070000002 2.064966e-38
0.012 -0.077 0.0060000001 2.3509886e-38
0.012 -0.077 0.0049999999 2.3509886e-38
0.012 -0.077 0.0040000002 2.3509886e-38
0.012 -0.077 0.003 2.3509886e-38
0.012 -0.077 0.0020000001 2.3509886e-38
0.012 -0.077 0.001 2.3509886e-38
0.013 -0.077 0.057999998 3.9640435e-39
0.013 -0.077 0.057 2.8584247e-39
0.013 -0.077 0.056000002 2.5821993e-39
0.013 -0.077 0.055 2.5818308e-39
0.013 -0.077 0.054000001 2.2141328e-39
0.013 -0.077 0.052999999 2.3063257e-39
0.013 -0.077 0.052000001 2.2148531e-39
0.013 -0.077 0.050999999 2.2137769e-39
0.013 -0.077 0.050000001 2.3063257e-39
0.013 -0.077 0.048999999 2.2130538e-39
0.013 -0.077 0.048 2.1215771e-39
0.013 -0.077 0.046999998 2.2130538e-39
0.013 -0.077 0.046 2.3974395e-39
0.013 -0.077 0.045000002 2.5825482e-39
0.013 -0.077 0.044 2.2144902e-39
0.013 -0.077 0.043000001 2.3059641e-39
0.013 -0.077 0.041999999 2.3056054e-39
0.013 -0.077 0.041000001 2.0297402e-39
0.013 -0.077 0.039999999 2.1219302e-39
0.013 -0.077 0.039000001 2.0301017e-39
0.013 -0.077 0.037999999 2.1222889e-39
0.013 -0.077 0.037 2.2137699e-39
0.013 -0.077 0.035999998 2.1212127e-39
0.013 -0.077 0.035 2.121933e-39
0.013 -0.077 0.034000002 2.2144902e-39
0.013 -0.077 0.033 2.2134112e-39
0.013 -0.077 0.032000002 2.1226519e-39
0.013 -0.077 0.030999999 2.0301003e-39
0.013 -0.077 0.029999999 2.2130538e-39
0.013 -0.077 0.028999999 2.3052481e-39
0.013 -0.077 0.028000001 2.3059683e-39
0.013 -0.077 0.027000001 2.2137671e-39
0.013 -0.077 0.026000001 2.213407e-39
0.013 -0.077 0.025 2.0290227e-39
0.013 -0.077 0.024 1.938262e-39
0.013 -0.077 0.023 2.0300975e-39
0.013 -0.077 0.022 2.3981528e-39
0.013 -0.077 0.021 2.1215743e-39
0.013 -0.077 0.02 2.3974381e-39
0.013 -0.077 0.018999999 2.5800371e-39
0.013 -0.077 0.017999999 2.3059655e-39
0.013 -0.077 0.017000001 2.3063257e-39
0.013 -0.077 0.016000001 2.2137699e-39
0.013 -0.077 0.015 2.2134084e-39
0.013 -0.077 0.014 2.3048879e-39
0.013 -0.077 0.013 2.1222931e-39
0.013 -0.077 0.012 2.1222988e-39
0.013 -0.077 0.011 2.2137713e-39
0.013 -0.077 0.0099999998 2.5814804e-39
0.013 -0.077 0.0089999996 5.9844315e-39
0.013 -0.077 0.0080000004 1.5582864e-38
0.013 -0.077 0.0070000002 2.3232929e-38
0.013 -0.077 0.0060000001 2.3509886e-38
0.013 -0.077 0.0049999999 2.3509886e-38
0.013 -0.077 0.0040000002 2.3509886e-38
0.013 -0.077 0.003 2.3509886e-38
0.013 -0.077 0.0020000001 2.3509886e-38
0.013 -0.077 0.001 2.3509886e-38
0.014 -0.077 0.057999998 3.9640435e-39
0.014 -0.077 0.057 2.9499014e-39
0.014 -0.077 0.056000002 2.4907225e-39
0.014 -0.077 0.055 2.6743893e-39
0.014 -0.077 0.054000001 2.5814748e-39
0.014 -0.077 0.052999999 2.1222988e-39
0.014 -0.077 0.052000001 2.3063257e-39
0.014 -0.077 0.050999999 2.1226547e-39
0.014 -0.077 0.050000001 2.2141328e-39
0.014 -0.077 0.048999999 2.2134084e-39
0.014 -0.077 0.048 2.3052481e-39
0.014 -0.077 0.046999998 2.0293857e-39
0.014 -0.077 0.046 2.0290227e-39
0.014 -0.077 0.045000002 2.396722e-39
0.014 -0.077 0.044 2.3066886e-39
0.014 -0.077 0.043000001 2.1212156e-39
0.014 -0.077 0.041999999 2.121217e-39
0.014 -0.077 0.041000001 2.2134126e-39
0.014 -0.077 0.039999999 2.1219386e-39
0.014 -0.077 0.039000001 2.121217e-39
0.014 -0.077 0.037999999 2.1219344e-39
0.014 -0.077 0.037 2.0290269e-39
0.014 -0.077 0.035999998 1.7535148e-39
0.014 -0.077 0.035 2.2126923e-39
0.014 -0.077 0.034000002 2.2130524e-39
0.014 -0.077 0.033 2.3056026e-39
0.014 -0.077 0.032000002 1.9379005e-39
0.014 -0.077 0.030999999 2.213051e-39
0.014 -0.077 0.029999999 1.9375474e-39
0.014 -0.077 0.028999999 2.2141286e-39
0.014 -0.077 0.028000001 2.3052467e-39
0.014 -0.077 0.027000001 2.213407e-39
0.014 -0.077 0.026000001 2.3045278e-39
0.014 -0.077 0.025 2.1222946e-39
0.014 -0.077 0.024 2.1215701e-39
0.014 -0.077 0.023 2.3967234e-39
0.014 -0.077 0.022 2.2130482e-39
0.014 -0.077 0.021 2.2130538e-39
0.014 -0.077 0.02 1.9386236e-39
0.014 -0.077 0.018999999 2.2123364e-39
0.014 -0.077 0.017999999 2.3056012e-39
0.014 -0.077 0.017000001 2.2137699e-39
0.014 -0.077 0.016000001 2.1215743e-39
0.014 -0.077 0.015 2.1215743e-39
0.014 -0.077 0.014 2.2130538e-39
0.014 -0.077 0.013 2.3978038e-39
0.014 -0.077 0.012 2.1222889e-39
0.014 -0.077 0.011 2.2141343e-39
0.014 -0.077 0.0099999998 2.3978066e-39
0.014 -0.077 0.0089999996 7.9309822e-39
0.014 -0.077 0.0080000004 1.8530592e-38
0.014 -0.077 0.0070000002 2.3418046e-38
0.014 -0.077 0.0060000001 2.3509886e-38
0.014 -0.077 0.0049999999 2.3509886e-38
0.014 -0.077 0.0040000002 2.3509886e-38
0.014 -0.077 0.003 2.3509886e-38
0.014 -0.077 0.0020000001 2.3509886e-38
0.014 -0.077 0.001 2.3509886e-38
0.015 -0.077 0.057999998 3.3211965e-39
0.015 -0.077 0.057 2.5825538e-39
0.015 -0.077 0.056000002 2.5829154e-39
0.015 -0.077 0.055 2.4896407e-39
0.015 -0.077 0.054000001 2.4903568e-39
0.015 -0.077 0.052999999 2.1222974e-39
0.015 -0.077 0.052000001 2.2144972e-39
0.015 -0.077 0.050999999 2.1226533e-39
0.015 -0.077 0.050000001 2.1226561e-39
0.015 -0.077 0.048999999 2.1219344e-39
0.015 -0.077 0.048 2.0304591e-39
0.015 -0.077 0.046999998 2.3056026e-39
0.015 -0.077 0.046 2.21413e-39
0.015 -0.077 0.045000002 2.0297402e-39
0.015 -0.077 0.044 2.214123e-39
0.015 -0.077 0.043000001 2.3063299e-39
0.015 -0.077 0.041999999 2.3970878e-39
0.015 -0.077 0.041000001 1.8460692e-39
0.015 -0.077 0.039999999 2.3063243e-39
0.015 -0.077 0.039000001 2.0290255e-39
0.015 -0.077 0.037999999 2.1222931e-39
0.015 -0.077 0.037 2.2130538e-39
0.015 -0.077 0.035999998 2.2137671e-39
0.015 -0.077 0.035 2.12194e-39
0.015 -0.077 0.034000002 2.305604e-39
0.015 -0.077 0.033 2.1219344e-39
0.015 -0.077 0.032000002 1.9368257e-39
0.015 -0.077 0.030999999 2.1215701e-39
0.015 -0.077 0.029999999 2.3048879e-39
0.015 -0.077 0.028999999 2.3048823e-39
0.015 -0.077 0.028000001 2.1222917e-39
0.015 -0.077 0.027000001 1.6623954e-39
0.015 -0.077 0.026000001 2.213051e-39
0.015 -0.077 0.025 2.2134084e-39
0.015 -0.077 0.024 2.0300919e-39
0.015 -0.077 0.023 2.3059669e-39
0.015 -0.077 0.022 2.3970766e-39
0.015 -0.077 0.021 2.3063229e-39
0.015 -0.077 0.02 2.3974381e-39
0.015 -0.077 0.018999999 2.1219344e-39
0.015 -0.077 0.017999999 2.2141286e-39
0.015 -0.077 0.017000001 2.0301017e-39
0.015 -0.077 0.016000001 2.0293801e-39
0.015 -0.077 0.015 2.3063257e-39
0.015 -0.077 0.014 2.1222974e-39
0.015 -0.077 0.013 2.489282e-39
0.015 -0.077 0.012 2.3970808e-39
0.015 -0.077 0.011 2.3974465e-39
0.015 -0.077 0.0099999998 2.2137853e-39
0.015 -0.077 0.0089999996 1.4847075e-38
0.015 -0.077 0.0080000004 2.1204621e-38
0.015 -0.077 0.0070000002 2.3509886e-38
0.015 -0.077 0.0060000001 2.3509886e-38
0.015 -0.077 0.0049999999 2.3509886e-38
0.015 -0.077 0.0040000002 2.3509886e-38
0.015 -0.077 0.003 2.3509886e-38
0.015 -0.077 0.0020000001 2.3509886e-38
0.015 -0.077 0.001 2.3509886e-38
0.016000001 -0.077 0.057999998 3.6881881e-39
0.016000001 -0.077 0.057 2.3066914e-39
0.016000001 -0.077 0.056000002 2.7658675e-39
0.016000001 -0.077 0.055 2.2148531e-39
0.016000001 -0.077 0.054000001 2.2141314e-39
0.016000001 -0.077 0.052999999 2.1219316e-39
0.016000001 -0.077 0.052000001 2.3059641e-39
0.016000001 -0.077 0.050999999 2.1212254e-39
0.016000001 -0.077 0.050000001 2.1215757e-39
0.016000001 -0.077 0.048999999 2.1212184e-39
0.016000001 -0.077 0.048 2.1215757e-39
0.016000001 -0.077 0.046999998 2.3974409e-39
0.016000001 -0.077 0.046 2.1215785e-39
0.016000001 -0.077 0.045000002 2.0300975e-39
0.016000001 -0.077 0.044 2.1219302e-39
0.016000001 -0.077 0.043000001 2.1215771e-39
0.016000001 -0.077 0.041999999 2.6740306e-39
0.016000001 -0.077 0.041000001 2.1215785e-39
0.016000001 -0.077 0.039999999 2.0297402e-39
0.016000001 -0.077 0.039000001 2.0297402e-39
0.016000001 -0.077 0.037999999 1.9382676e-39
0.016000001 -0.077 0.037 2.3052453e-39
0.016000001 -0.077 0.035999998 2.121217e-39
0.016000001 -0.077 0.035 2.1215701e-39
0.016000001 -0.077 0.034000002 2.2137685e-39
0.016000001 -0.077 0.033 2.1219316e-39
0.016000001 -0.077 0.032000002 1.9382592e-39
0.016000001 -0.077 0.030999999 2.1215715e-39
0.016000001 -0.077 0.029999999 2.2134084e-39
0.016000001 -0.077 0.028999999 1.7542295e-39
0.016000001 -0.077 0.028000001 2.1215743e-39
0.016000001 -0.077 0.027000001 2.3048893e-39
0.016000001 -0.077 0.026000001 2.0297388e-39
0.016000001 -0.077 0.025 2.2144888e-39
0.016000001 -0.077 0.024 2.4892708e-39
0.016000001 -0.077 0.023 2.2126937e-39
0.016000001 -0.077 0.022 2.0297346e-39
0.016000001 -0.077 0.021 2.3970836e-39
0.016000001 -0.077 0.02 2.2134098e-39
0.016000001 -0.077 0.018999999 1.8457105e-39
0.016000001 -0.077 0.017999999 2.3059669e-39
0.016000001 -0.077 0.017000001 2.1219288e-39
0.016000001 -0.077 0.016000001 2.3055984e-39
0.016000001 -0.077 0.015 2.1215715e-39
0.016000001 -0.077 0.014 2.4892764e-39
0.016000001 -0.077 0.013 2.3052481e-39
0.016000001 -0.077 0.012 2.214493e-39
0.016000001 -0.077 0.011 2.3052537e-39
0.016000001 -0.077 0.0099999998 5.6206992e-39
0.016000001 -0.077 0.0089999996 1.9635152e-38
0.016000001 -0.077 0.0080000004 2.3509163e-38
0.016000001 -0.077 0.0070000002 2.3509886e-38
0.016000001 -0.077 0.0060000001 2.3509886e-38
0.016000001 -0.077 0.0049999999 2.3509886e-38
0.016000001 -0.077 0.0040000002 2.3509886e-38
0.016000001 -0.077 0.003 2.3509886e-38
0.016000001 -0.077 0.0020000001 2.3509886e-38
0.016000001 -0.077 0.001 2.3509886e-38
0.017000001 -0.077 0.057999998 3.9633359e-39
0.017000001 -0.077 0.057 2.4910841e-39
0.017000001 -0.077 0.056000002 2.4899995e-39
0.017000001 -0.077 0.055 2.1226589e-39
0.017000001 -0.077 0.054000001 2.0304605e-39
0.017000001 -0.077 0.052999999 2.21413e-39
0.017000001 -0.077 0.052000001 2.3052481e-39
0.017000001 -0.077 0.050999999 2.3974465e-39
0.017000001 -0.077 0.050000001 2.3052467e-39
0.017000001 -0.077 0.048999999 2.3048935e-39
0.017000001 -0.077 0.048 2.2130538e-39
0.017000001 -0.077 0.046999998 2.2134098e-39
0.017000001 -0.077 0.046 2.2134126e-39
0.017000001 -0.077 0.045000002 1.846065e-39
0.017000001 -0.077 0.044 2.3974381e-39
0.017000001 -0.077 0.043000001 2.1208582e-39
0.017000001 -0.077 0.041999999 2.1219358e-39
0.017000001 -0.077 0.041000001 2.5818364e-39
0.017000001 -0.077 0.039999999 2.3048851e-39
0.017000001 -0.077 0.039000001 2.1208582e-39
0.017000001 -0.077 0.037999999 2.2134098e-39
0.017000001 -0.077 0.037 2.0293773e-39
0.017000001 -0.077 0.035999998 1.9379061e-39
0.017000001 -0.077 0.035 2.1215743e-39
0.017000001 -0.077 0.034000002 2.3045236e-39
0.017000001 -0.077 0.033 2.2137671e-39
0.017000001 -0.077 0.032000002 2.2126909e-39
0.017000001 -0.077 0.030999999 2.0293759e-39
0.017000001 -0.077 0.029999999 2.2130482e-39
0.017000001 -0.077 0.028999999 2.2141286e-39
0.017000001 -0.077 0.028000001 2.0297388e-39
0.017000001 -0.077 0.027000001 2.1222988e-39
0.017000001 -0.077 0.026000001 2.305604e-39
0.017000001 -0.077 0.025 2.4892792e-39
0.017000001 -0.077 0.024 2.3970808e-39
0.017000001 -0.077 0.023 1.9375446e-39
0.017000001 -0.077 0.022 2.2137671e-39
0.017000001 -0.077 0.021 2.3974367e-39
0.017000001 -0.077 0.02 2.3970794e-39
0.017000001 -0.077 0.018999999 2.1212184e-39
0.017000001 -0.077 0.017999999 2.3970836e-39
0.017000001 -0.077 0.017000001 2.3970808e-39
0.017000001 -0.077 0.016000001 2.3970808e-39
0.017000001 -0.077 0.015 2.2137699e-39
0.017000001 -0.077 0.014 2.397085e-39
0.017000001 -0.077 0.013 2.5818322e-39
0.017000001 -0.077 0.012 2.3070445e-39
0.017000001 -0.077 0.011 2.3059725e-39
0.017000001 -0.077 0.0099999998 9.2156071e-39
0.017000001 -0.077 0.0089999996 2.1939687e-38
0.017000001 -0.077 0.0080000004 2.3509886e-38
0.017000001 -0.077 0.0070000002 2.3509886e-38
0.017000001 -0.077 0.0060000001 2.3509886e-38
0.017000001 -0.077 0.0049999999 2.3509886e-38
0.017000001 -0.077 0.0040000002 2.3509886e-38
0.017000001 -0.077 0.003 2.3509886e-38
0.017000001 -0.077 0.0020000001 2.3509886e-38
0.017000001 -0.077 0.001 2.3509886e-38
0.017999999 -0.077 0.057999998 4.1466397e-39
0.017999999 -0.077 0.057 2.3981626e-39
0.017999999 -0.077 0.056000002 2.3978066e-39
0.017999999 -0.077 0.055 2.5818322e-39
0.017999999 -0.077 0.054000001 2.2152062e-39
0.017999999 -0.077 0.052999999 2.4889191e-39
0.017999999 -0.077 0.052000001 2.3974479e-39
0.017999999 -0.077 0.050999999 2.2148447e-39
0.017999999 -0.077 0.050000001 2.1222917e-39
0.017999999 -0.077 0.048999999 2.0301017e-39
0.017999999 -0.077 0.048 2.0304619e-39
0.017999999 -0.077 0.046999998 2.0293829e-39
0.017999999 -0.077 0.046 2.2134112e-39
0.017999999 -0.077 0.045000002 2.0297374e-39
0.017999999 -0.077 0.044 2.2126895e-39
0.017999999 -0.077 0.043000001 1.9371886e-39
0.017999999 -0.077 0.041999999 1.9375474e-39
0.017999999 -0.077 0.041000001 2.0293829e-39
0.017999999 -0.077 0.039999999 2.5811133e-39
0.017999999 -0.077 0.039000001 2.1219372e-39
0.017999999 -0.077 0.037999999 2.0286668e-39
0.017999999 -0.077 0.037 2.0293801e-39
0.017999999 -0.077 0.035999998 1.9371886e-39
0.017999999 -0.077 0.035 2.214123e-39
0.017999999 -0.077 0.034000002 2.489275e-39
0.017999999 -0.077 0.033 2.3967206e-39
0.017999999 -0.077 0.032000002 2.0300947e-39
0.017999999 -0.077 0.030999999 2.1208526e-39
0.017999999 -0.077 0.029999999 2.1212141e-39
0.017999999 -0.077 0.028999999 2.1215757e-39
0.017999999 -0.077 0.028000001 2.2130524e-39
0.017999999 -0.077 0.027000001 2.3056054e-39
0.017999999 -0.077 0.026000001 2.3970808e-39
0.017999999 -0.077 0.025 2.3977968e-39
0.017999999 -0.077 0.024 2.121217e-39
0.017999999 -0.077 0.023 2.3045236e-39
0.017999999 -0.077 0.022 1.9371816e-39
0.017999999 -0.077 0.021 2.4889205e-39
0.017999999 -0.077 0.02 2.3974465e-39
0.017999999 -0.077 0.018999999 2.0297374e-39
0.017999999 -0.077 0.017999999 2.2141272e-39
0.017999999 -0.077 0.017000001 2.3056068e-39
0.017999999 -0.077 0.016000001 2.2141272e-39
0.017999999 -0.077 0.015 2.490354e-39
0.017999999 -0.077 0.014 2.6729432e-39
0.017999999 -0.077 0.013 2.3974451e-39
0.017999999 -0.077 0.012 2.3063313e-39
0.017999999 -0.077 0.011 2.5822105e-39
0.017999999 -0.077 0.0099999998 1.6040962e-38
0.017999999 -0.077 0.0089999996 2.3417327e-38
0.017999999 -0.077 0.0080000004 2.3509886e-38
0.017999999 -0.077 0.0070000002 2.3509886e-38
0.017999999 -0.077 0.0060000001 2.3509886e-38
0.017999999 -0.077 0.0049999999 2.3509886e-38
0.017999999 -0.077 0.0040000002 2.3509886e-38
0.017999999 -0.077 0.003 2.3509886e-38
0.017999999 -0.077 0.0020000001 2.3509886e-38
0.017999999 -0.077 0.001 2.3509886e-38
0.018999999 -0.077 0.057999998 3.7792907e-39
0.018999999 -0.077 0.057 2.2141343e-39
0.018999999 -0.077 0.056000002 2.3974437e-39
0.018999999 -0.077 0.055 2.4885617e-39
0.018999999 -0.077 0.054000001 2.3974479e-39
0.018999999 -0.077 0.052999999 2.3981626e-39
0.018999999 -0.077 0.052000001 2.3059683e-39
0.018999999 -0.077 0.050999999 2.2141314e-39
0.018999999 -0.077 0.050000001 2.0297416e-39
0.018999999 -0.077 0.048999999 2.121933e-39
0.018999999 -0.077 0.048 2.1215799e-39
0.018999999 -0.077 0.046999998 2.3052467e-39
0.018999999 -0.077 0.046 1.9371872e-39
0.018999999 -0.077 0.045000002 2.2126937e-39
0.018999999 -0.077 0.044 1.8460664e-39
0.018999999 -0.077 0.043000001 1.9375446e-39
0.018999999 -0.077 0.041999999 1.9382648e-39
0.018999999 -0.077 0.041000001 2.0293815e-39
0.018999999 -0.077 0.039999999 2.2134112e-39
0.018999999 -0.077 0.039000001 2.3074033e-39
0.018999999 -0.077 0.037999999 2.3052467e-39
0.018999999 -0.077 0.037 2.1212141e-39
0.018999999 -0.077 0.035999998 2.0286612e-39
0.018999999 -0.077 0.035 2.0290255e-39
0.018999999 -0.077 0.034000002 2.1215743e-39
0.018999999 -0.077 0.033 2.029743e-39
0.018999999 -0.077 0.032000002 1.9382634e-39
0.018999999 -0.077 0.030999999 1.9379033e-39
0.018999999 -0.077 0.029999999 2.2137685e-39
0.018999999 -0.077 0.028999999 2.213051e-39
0.018999999 -0.077 0.028000001 2.2130524e-39
0.018999999 -0.077 0.027000001 2.3052467e-39
0.018999999 -0.077 0.026000001 2.0297332e-39
0.018999999 -0.077 0.025 2.2130496e-39
0.018999999 -0.077 0.024 2.1212156e-39
0.018999999 -0.077 0.023 2.3048879e-39
0.018999999 -0.077 0.022 1.9379089e-39
0.018999999 -0.077 0.021 2.3974395e-39
0.018999999 -0.077 0.02 2.121933e-39
0.018999999 -0.077 0.018999999 1.9386236e-39
0.018999999 -0.077 0.017999999 2.3052495e-39
0.018999999 -0.077 0.017000001 2.3059669e-39
0.018999999 -0.077 0.016000001 2.4892764e-39
0.018999999 -0.077 0.015 2.3967276e-39
0.018999999 -0.077 0.014 2.4896323e-39
0.018999999 -0.077 0.013 2.3059669e-39
0.018999999 -0.077 0.012 2.5818448e-39
0.018999999 -0.077 0.011 6.7220259e-39
0.018999999 -0.077 0.0099999998 2.0191904e-38
0.018999999 -0.077 0.0089999996 2.3509886e-38
0.018999999 -0.077 0.0080000004 2.3509886e-38
0.018999999 -0.077 0.0070000002 2.3509886e-38
0.018999999 -0.077 0.0060000001 2.3509886e-38
0.018999999 -0.077 0.0049999999 2.3509886e-38
0.018999999 -0.077 0.0040000002 2.3509886e-38
0.018999999 -0.077 0.003 2.3509886e-38
0.018999999 -0.077 0.0020000001 2.3509886e-38
0.018999999 -0.077 0.001 2.3509886e-38
0.02 -0.077 0.057999998 3.5945408e-39
0.02 -0.077 0.057 2.3059697e-39
0.02 -0.077 0.056000002 2.3066844e-39
0.02 -0.077 0.055 2.2137713e-39
0.02 -0.077 0.054000001 2.213421e-39
0.02 -0.077 0.052999999 2.0301003e-39
0.02 -0.077 0.052000001 2.4896407e-39
0.02 -0.077 0.050999999 2.0304619e-39
0.02 -0.077 0.050000001 2.1222974e-39
0.02 -0.077 0.048999999 2.0304577e-39
0.02 -0.077 0.048 2.0297388e-39
0.02 -0.077 0.046999998 2.029743e-39
0.02 -0.077 0.046 2.3052495e-39
0.02 -0.077 0.045000002 1.937546e-39
0.02 -0.077 0.044 1.9371872e-39
0.02 -0.077 0.043000001 2.0290241e-39
0.02 -0.077 0.041999999 2.0290185e-39
0.02 -0.077 0.041000001 2.0290213e-39
0.02 -0.077 0.039999999 2.1212141e-39
0.02 -0.077 0.039000001 2.3063159e-39
0.02 -0.077 0.037999999 2.7654976e-39
0.02 -0.077 0.037 2.1212113e-39
0.02 -0.077 0.035999998 1.9371886e-39
0.02 -0.077 0.035 1.8457147e-39
0.02 -0.077 0.034000002 2.1215743e-39
0.02 -0.077 0.033 2.1212156e-39
0.02 -0.077 0.032000002 2.0290227e-39
0.02 -0.077 0.030999999 2.1212226e-39
0.02 -0.077 0.029999999 2.1215785e-39
0.02 -0.077 0.028999999 2.0297388e-39
0.02 -0.077 0.028000001 2.0293829e-39
0.02 -0.077 0.027000001 2.0300933e-39
0.02 -0.077 0.026000001 2.1215743e-39
0.02 -0.077 0.025 2.3967206e-39
0.02 -0.077 0.024 2.2134084e-39
0.02 -0.077 0.023 2.0297374e-39
0.02 -0.077 0.022 1.9375446e-39
0.02 -0.077 0.021 2.3974409e-39
0.02 -0.077 0.02 2.2134126e-39
0.02 -0.077 0.018999999 2.029743e-39
0.02 -0.077 0.017999999 2.2141328e-39
0.02 -0.077 0.017000001 2.3059711e-39
0.02 -0.077 0.016000001 2.3056082e-39
0.02 -0.077 0.015 2.3978024e-39
0.02 -0.077 0.014 2.3985199e-39
0.02 -0.077 0.013 2.2141399e-39
0.02 -0.077 0.012 2.8591463e-39
0.02 -0.077 0.011 1.142864e-38
0.02 -0.077 0.0099999998 2.1851439e-38
0.02 -0.077 0.0089999996 2.3509886e-38
0.02 -0.077 0.0080000004 2.3509886e-38
0.02 -0.077 0.0070000002 2.3509886e-38
0.02 -0.077 0.0060000001 2.3509886e-38
0.02 -0.077 0.0049999999 2.3509886e-38
0.02 -0.077 0.0040000002 2.3509886e-38
0.02 -0.077 0.003 2.3509886e-38
0.02 -0.077 0.0020000001 2.3509886e-38
0.02 -0.077 0.001 2.3509886e-38
0.021 -0.077 0.057999998 3.5945422e-39
0.021 -0.077 0.057 2.1222974e-39
0.021 -0.077 0.056000002 2.2141328e-39
0.021 -0.077 0.055 2.3974479e-39
0.021 -0.077 0.054000001 2.2148503e-39
0.021 -0.077 0.052999999 2.3059683e-39
0.021 -0.077 0.052000001 2.305611e-39
0.021 -0.077 0.050999999 2.3978038e-39
0.021 -0.077 0.050000001 2.0290213e-39
0.021 -0.077 0.048999999 2.1212156e-39
0.021 -0.077 0.048 1.9375446e-39
0.021 -0.077 0.046999998 1.9379075e-39
0.021 -0.077 0.046 2.2130538e-39
0.021 -0.077 0.045000002 2.1212198e-39
0.021 -0.077 0.044 1.9382606e-39
0.021 -0.077 0.043000001 2.2130538e-39
0.021 -0.077 0.041999999 2.0283067e-39
0.021 -0.077 0.041000001 2.0286668e-39
0.021 -0.077 0.039999999 2.121217e-39
0.021 -0.077 0.039000001 1.9371872e-39
0.021 -0.077 0.037999999 2.3056096e-39
0.021 -0.077 0.037 2.5832671e-39
0.021 -0.077 0.035999998 2.1215785e-39
0.021 -0.077 0.035 2.0290185e-39
0.021 -0.077 0.034000002 1.9375446e-39
0.021 -0.077 0.033 1.9371816e-39
0.021 -0.077 0.032000002 2.0293801e-39
0.021 -0.077 0.030999999 1.8453517e-39
0.021 -0.077 0.029999999 2.1215827e-39
0.021 -0.077 0.028999999 1.9375404e-39
0.021 -0.077 0.028000001 2.2134112e-39
0.021 -0.077 0.027000001 2.0297374e-39
0.021 -0.077 0.026000001 2.3045306e-39
0.021 -0.077 0.025 2.2126923e-39
0.021 -0.077 0.024 2.0304549e-39
0.021 -0.077 0.023 2.3048837e-39
0.021 -0.077 0.022 2.029736e-39
0.021 -0.077 0.021 2.0304563e-39
0.021 -0.077 0.02 1.9379075e-39
0.021 -0.077 0.018999999 2.4885589e-39
0.021 -0.077 0.017999999 2.397801e-39
0.021 -0.077 0.017000001 2.6740278e-39
0.021 -0.077 0.016000001 2.5814762e-39
0.021 -0.077 0.015 2.3070431e-39
0.021 -0.077 0.014 2.4892792e-39
0.021 -0.077 0.013 2.4903652e-39
0.021 -0.077 0.012 3.9654939e-39
0.021 -0.077 0.011 1.6692078e-38
0.021 -0.077 0.0099999998 2.3509872e-38
0.021 -0.077 0.0089999996 2.3509886e-38
0.021 -0.077 0.0080000004 2.3509886e-38
0.021 -0.077 0.0070000002 2.3509886e-38
0.021 -0.077 0.0060000001 2.3509886e-38
0.021 -0.077 0.0049999999 2.3509886e-38
0.021 -0.077 0.0040000002 2.3509886e-38
0.021 -0.077 0.003 2.3509886e-38
0.021 -0.077 0.0020000001 2.3509886e-38
0.021 -0.077 0.001 2.3509886e-38
0.022 -0.077 0.057999998 3.6867266e-39
0.022 -0.077 0.057 2.2141357e-39
0.022 -0.077 0.056000002 2.3978038e-39
0.022 -0.077 0.055 2.2137783e-39
0.022 -0.077 0.054000001 2.2144902e-39
0.022 -0.077 0.052999999 2.3052481e-39
0.022 -0.077 0.052000001 2.3978052e-39
0.022 -0.077 0.050999999 2.1219386e-39
0.022 -0.077 0.050000001 1.9382634e-39
0.022 -0.077 0.048999999 2.0293815e-39
0.022 -0.077 0.048 2.1215715e-39
0.022 -0.077 0.046999998 1.9382648e-39
0.022 -0.077 0.046 2.0293773e-39
0.022 -0.077 0.045000002 1.9375432e-39
0.022 -0.077 0.044 1.9379005e-39
0.022 -0.077 0.043000001 2.1205037e-39
0.022 -0.077 0.041999999 2.1208638e-39
0.022 -0.077 0.041000001 2.213414e-39
0.022 -0.077 0.039999999 2.0297402e-39
0.022 -0.077 0.039000001 1.9371858e-39
0.022 -0.077 0.037999999 1.9379075e-39
0.022 -0.077 0.037 2.3059669e-39
0.022 -0.077 0.035999998 3.0428103e-39
0.022 -0.077 0.035 2.3048865e-39
0.022 -0.077 0.034000002 1.8460664e-39
0.022 -0.077 0.033 1.9371872e-39
0.022 -0.077 0.032000002 2.2130482e-39
0.022 -0.077 0.030999999 2.0290213e-39
0.022 -0.077 0.029999999 1.9382648e-39
0.022 -0.077 0.028999999 2.213051e-39
0.022 -0.077 0.028000001 2.2141272e-39
0.022 -0.077 0.027000001 2.1222974e-39
0.022 -0.077 0.026000001 2.3056054e-39
0.022 -0.077 0.025 2.2126923e-39
0.022 -0.077 0.024 2.0293801e-39
0.022 -0.077 0.023 2.3974395e-39
0.022 -0.077 0.022 1.9382648e-39
0.022 -0.077 0.021 2.3059655e-39
0.022 -0.077 0.02 2.3056082e-39
0.022 -0.077 0.018999999 2.1222917e-39
0.022 -0.077 0.017999999 2.3056054e-39
0.022 -0.077 0.017000001 2.2148503e-39
0.022 -0.077 0.016000001 2.4903596e-39
0.022 -0.077 0.015 2.21413e-39
0.022 -0.077 0.014 2.3981626e-39
0.022 -0.077 0.013 2.490361e-39
0.022 -0.077 0.012 7.0094084e-39
0.022 -0.077 0.011 2.1110637e-38
0.022 -0.077 0.0099999998 2.3509886e-38
0.022 -0.077 0.0089999996 2.3509886e-38
0.022 -0.077 0.0080000004 2.3509886e-38
0.022 -0.077 0.0070000002 2.3509886e-38
0.022 -0.077 0.0060000001 2.3509886e-38
0.022 -0.077 0.0049999999 2.3509886e-38
0.022 -0.077 0.0040000002 2.3509886e-38
0.022 -0.077 0.003 2.3509886e-38
0.022 -0.077 0.0020000001 2.3509886e-38
0.022 -0.077 0.001 2.3509886e-38
0.023 -0.077 0.057999998 4.2370319e-39
0.023 -0.077 0.057 2.4896407e-39
0.023 -0.077 0.056000002 2.4892792e-39
0.023 -0.077 0.055 2.397085e-39
0.023 -0.077 0.054000001 2.3970864e-39
0.023 -0.077 0.052999999 2.0301031e-39
0.023 -0.077 0.052000001 2.2144972e-39
0.023 -0.077 0.050999999 2.3056068e-39
0.023 -0.077 0.050000001 2.1215799e-39
0.023 -0.077 0.048999999 2.1219358e-39
0.023 -0.077 0.048 2.1219302e-39
0.023 -0.077 0.046999998 2.213414e-39
0.023 -0.077 0.046 2.1212184e-39
0.023 -0.077 0.045000002 2.0297374e-39
0.023 -0.077 0.044 2.2123322e-39
0.023 -0.077 0.043000001 2.305604e-39
0.023 -0.077 0.041999999 1.9379047e-39
0.023 -0.077 0.041000001 2.2141286e-39
0.023 -0.077 0.039999999 2.0293843e-39
0.023 -0.077 0.039000001 2.1219316e-39
0.023 -0.077 0.037999999 2.2137713e-39
0.023 -0.077 0.037 1.9382704e-39
0.023 -0.077 0.035999998 2.3974437e-39
0.023 -0.077 0.035 2.9513406e-39
0.023 -0.077 0.034000002 2.3059669e-39
0.023 -0.077 0.033 2.2137727e-39
0.023 -0.077 0.032000002 2.2137699e-39
0.023 -0.077 0.030999999 2.0293815e-39
0.023 -0.077 0.029999999 2.3041733e-39
0.023 -0.077 0.028999999 2.0300975e-39
0.023 -0.077 0.028000001 2.0301003e-39
0.023 -0.077 0.027000001 2.1222988e-39
0.023 -0.077 0.026000001 1.9382676e-39
0.023 -0.077 0.025 2.2134084e-39
0.023 -0.077 0.024 2.3059627e-39
0.023 -0.077 0.023 2.2137699e-39
0.023 -0.077 0.022 2.1215813e-39
0.023 -0.077 0.021 2.3974437e-39
0.023 -0.077 0.02 2.2141272e-39
0.023 -0.077 0.018999999 2.3974423e-39
0.023 -0.077 0.017999999 2.397801e-39
0.023 -0.077 0.017000001 2.4899981e-39
0.023 -0.077 0.016000001 2.3056082e-39
0.023 -0.077 0.015 2.3063257e-39
0.023 -0.077 0.014 2.4896435e-39
0.023 -0.077 0.013 2.8580729e-39
0.023 -0.077 0.012 1.5305534e-38
0.023 -0.077 0.011 2.2774483e-38
0.023 -0.077 0.0099999998 2.3509886e-38
0.023 -0.077 0.0089999996 2.3509886e-38
0.023 -0.077 0.0080000004 2.3509886e-38
0.023 -0.077 0.0070000002 2.3509886e-38
0.023 -0.077 0.0060000001 2.3509886e-38
0.023 -0.077 0.0049999999 2.3509886e-38
0.023 -0.077 0.0040000002 2.3509886e-38
0.023 -0.077 0.003 2.3509886e-38
0.023 -0.077 0.0020000001 2.3509886e-38
0.023 -0.077 0.001 2.3509886e-38
0.024 -0.077 0.057999998 4.1455523e-39
0.024 -0.077 0.057 2.4896449e-39
0.024 -0.077 0.056000002 2.3063257e-39
0.024 -0.077 0.055 2.398164e-39
0.024 -0.077 0.054000001 2.4899967e-39
0.024 -0.077 0.052999999 2.3052537e-39
0.024 -0.077 0.052000001 2.2137741e-39
0.024 -0.077 0.050999999 2.2126937e-39
0.024 -0.077 0.050000001 2.0297402e-39
0.024 -0.077 0.048999999 2.3041663e-39
0.024 -0.077 0.048 1.9379089e-39
0.024 -0.077 0.046999998 2.304532e-39
0.024 -0.077 0.046 2.1215813e-39
0.024 -0.077 0.045000002 2.3048879e-39
0.024 -0.077 0.044 2.0293843e-39
0.024 -0.077 0.043000001 2.3041691e-39
0.024 -0.077 0.041999999 1.7538736e-39
0.024 -0.077 0.041000001 2.121217e-39
0.024 -0.077 0.039999999 2.3052481e-39
0.024 -0.077 0.039000001 2.21413e-39
0.024 -0.077 0.037999999 2.1212184e-39
0.024 -0.077 0.037 2.0297444e-39
0.024 -0.077 0.035999998 1.9375432e-39
0.024 -0.077 0.035 2.674025e-39
0.024 -0.077 0.034000002 3.3186853e-39
0.024 -0.077 0.033 2.3048893e-39
0.024 -0.077 0.032000002 2.3056082e-39
0.024 -0.077 0.030999999 2.2126923e-39
0.024 -0.077 0.029999999 2.0300989e-39
0.024 -0.077 0.028999999 2.2123322e-39
0.024 -0.077 0.028000001 2.0297402e-39
0.024 -0.077 0.027000001 2.1219316e-39
0.024 -0.077 0.026000001 2.0297416e-39
0.024 -0.077 0.025 2.3048851e-39
0.024 -0.077 0.024 2.2130567e-39
0.024 -0.077 0.023 2.0304563e-39
0.024 -0.077 0.022 2.3052425e-39
0.024 -0.077 0.021 2.2126937e-39
0.024 -0.077 0.02 2.3056054e-39
0.024 -0.077 0.018999999 2.4878471e-39
0.024 -0.077 0.017999999 2.3974409e-39
0.024 -0.077 0.017000001 2.2137741e-39
0.024 -0.077 0.016000001 2.397808e-39
0.024 -0.077 0.015 2.6743823e-39
0.024 -0.077 0.014 2.582558e-39
0.024 -0.077 0.013 4.3278178e-39
0.024 -0.077 0.012 1.8258335e-38
0.024 -0.077 0.011 2.3509886e-38
0.024 -0.077 0.0099999998 2.3509886e-38
0.024 -0.077 0.0089999996 2.3509886e-38
0.024 -0.077 0.0080000004 2.3509886e-38
0.024 -0.077 0.0070000002 2.3509886e-38
0.024 -0.077 0.0060000001 2.3509886e-38
0.024 -0.077 0.0049999999 2.3509886e-38
0.024 -0.077 0.0040000002 2.3509886e-38
0.024 -0.077 0.003 2.3509886e-38
0.024 -0.077 0.0020000001 2.3509886e-38
0.024 -0.077 0.001 2.3509886e-38
0.025 -0.077 0.057999998 4.3321016e-39
0.025 -0.077 0.057 2.214493e-39
0.025 -0.077 0.056000002 2.2137741e-39
0.025 -0.077 0.055 2.3059655e-39
0.025 -0.077 0.054000001 2.2148503e-39
0.025 -0.077 0.052999999 2.0293857e-39
0.025 -0.077 0.052000001 1.9382592e-39
0.025 -0.077 0.050999999 2.0293829e-39
0.025 -0.077 0.050000001 2.1215757e-39
0.025 -0.077 0.048999999 2.029743e-39
0.025 -0.077 0.048 2.0297416e-39
0.025 -0.077 0.046999998 2.396722e-39
0.025 -0.077 0.046 2.3974423e-39
0.025 -0.077 0.045000002 2.0297458e-39
0.025 -0.077 0.044 2.0293801e-39
0.025 -0.077 0.043000001 2.1215799e-39
0.025 -0.077 0.041999999 2.304532e-39
0.025 -0.077 0.041000001 2.029743e-39
0.025 -0.077 0.039999999 2.0297374e-39
0.025 -0.077 0.039000001 2.0297416e-39
0.025 -0.077 0.037999999 1.9375474e-39
0.025 -0.077 0.037 2.2137671e-39
0.025 -0.077 0.035999998 1.9386222e-39
0.025 -0.077 0.035 2.4892736e-39
0.025 -0.077 0.034000002 2.489275e-39
0.025 -0.077 0.033 4.1506348e-39
0.025 -0.077 0.032000002 2.5818378e-39
0.025 -0.077 0.030999999 2.1226505e-39
0.025 -0.077 0.029999999 2.0293815e-39
0.025 -0.077 0.028999999 2.121933e-39
0.025 -0.077 0.028000001 2.0297402e-39
0.025 -0.077 0.027000001 2.1215771e-39
0.025 -0.077 0.026000001 2.2137685e-39
0.025 -0.077 0.025 2.2141272e-39
0.025 -0.077 0.024 2.1219316e-39
0.025 -0.077 0.023 2.4892834e-39
0.025 -0.077 0.022 2.3052481e-39
0.025 -0.077 0.021 2.3974395e-39
0.025 -0.077 0.02 2.1215715e-39
0.025 -0.077 0.018999999 2.5811105e-39
0.025 -0.077 0.017999999 2.1223002e-39
0.025 -0.077 0.017000001 2.3066844e-39
0.025 -0.077 0.016000001 2.3056054e-39
0.025 -0.077 0.015 2.3978038e-39
0.025 -0.077 0.014 2.5818448e-39
0.025 -0.077 0.013 8.6638935e-39
0.025 -0.077 0.012 2.2312777e-38
0.025 -0.077 0.011 2.3509886e-38
0.025 -0.077 0.0099999998 2.3509886e-38
0.025 -0.077 0.0089999996 2.3509886e-38
0.025 -0.077 0.0080000004 2.3509886e-38
0.025 -0.077 0.0070000002 2.3509886e-38
0.025 -0.077 0.0060000001 2.3509886e-38
0.025 -0.077 0.0049999999 2.3509886e-38
0.025 -0.077 0.0040000002 2.3509886e-38
0.025 -0.077 0.003 2.3509886e-38
0.025 -0.077 0.0020000001 2.3509886e-38
0.025 -0.077 0.001 2.3509886e-38
0.026000001 -0.077 0.057999998 4.1469971e-39
0.026000001 -0.077 0.057 2.2152118e-39
0.026000001 -0.077 0.056000002 2.2130581e-39
0.026000001 -0.077 0.055 1.9379061e-39
0.026000001 -0.077 0.054000001 2.5814748e-39
0.026000001 -0.077 0.052999999 2.3066914e-39
0.026000001 -0.077 0.052000001 2.214493e-39
0.026000001 -0.077 0.050999999 2.1215813e-39
0.026000001 -0.077 0.050000001 2.1212184e-39
0.026000001 -0.077 0.048999999 2.1215715e-39
0.026000001 -0.077 0.048 1.9375474e-39
0.026000001 -0.077 0.046999998 2.0290199e-39
0.026000001 -0.077 0.046 2.2137699e-39
0.026000001 -0.077 0.045000002 2.2137657e-39
0.026000001 -0.077 0.044 2.0293773e-39
0.026000001 -0.077 0.043000001 2.1212156e-39
0.026000001 -0.077 0.041999999 2.3052481e-39
0.026000001 -0.077 0.041000001 2.1208624e-39
0.026000001 -0.077 0.039999999 1.9371872e-39
0.026000001 -0.077 0.039000001 2.1208582e-39
0.026000001 -0.077 0.037999999 2.2130553e-39
0.026000001 -0.077 0.037 2.3045292e-39
0.026000001 -0.077 0.035999998 2.121933e-39
0.026000001 -0.077 0.035 2.121217e-39
0.026000001 -0.077 0.034000002 2.1215757e-39
0.026000001 -0.077 0.033 2.7658689e-39
0.026000001 -0.077 0.032000002 3.5963428e-39
0.026000001 -0.077 0.030999999 2.1215757e-39
0.026000001 -0.077 0.029999999 2.5814706e-39
0.026000001 -0.077 0.028999999 2.2130496e-39
0.026000001 -0.077 0.028000001 2.4885519e-39
0.026000001 -0.077 0.027000001 1.9382634e-39
0.026000001 -0.077 0.026000001 2.0297444e-39
0.026000001 -0.077 0.025 2.3059655e-39
0.026000001 -0.077 0.024 2.0311751e-39
0.026000001 -0.077 0.023 2.1222917e-39
0.026000001 -0.077 0.022 2.2137741e-39
0.026000001 -0.077 0.021 2.3070445e-39
0.026000001 -0.077 0.02 2.6736635e-39
0.026000001 -0.077 0.018999999 2.0300989e-39
0.026000001 -0.077 0.017999999 2.3977982e-39
0.026000001 -0.077 0.017000001 2.4903554e-39
0.026000001 -0.077 0.016000001 2.3992388e-39
0.026000001 -0.077 0.015 2.4896463e-39
0.026000001 -0.077 0.014 3.2243415e-39
0.026000001 -0.077 0.013 1.6778516e-38
0.026000001 -0.077 0.012 2.3509884e-38
0.026000001 -0.077 0.011 2.3509886e-38
0.026000001 -0.077 0.0099999998 2.3509886e-38
0.026000001 -0.077 0.0089999996 2.3509886e-38
0.026000001 -0.077 0.0080000004 2.3509886e-38
0.026000001 -0.077 0.0070000002 2.3509886e-38
0.026000001 -0.077 0.0060000001 2.3509886e-38
0.026000001 -0.077 0.0049999999 2.3509886e-38
0.026000001 -0.077 0.0040000002 2.3509886e-38
0.026000001 -0.077 0.003 2.3509886e-38
0.026000001 -0.077 0.0020000001 2.3509886e-38
0.026000001 -0.077 0.001 2.3509886e-38
0.027000001 -0.077 0.057999998 3.5949051e-39
0.027000001 -0.077 0.057 2.4892862e-39
0.027000001 -0.077 0.056000002 2.3056082e-39
0.027000001 -0.077 0.055 2.3059669e-39
0.027000001 -0.077 0.054000001 2.3974437e-39
0.027000001 -0.077 0.052999999 2.3059683e-39
0.027000001 -0.077 0.052000001 2.1226589e-39
0.027000001 -0.077 0.050999999 2.1226575e-39
0.027000001 -0.077 0.050000001 1.9379033e-39
0.027000001 -0.077 0.048999999 2.1219344e-39
0.027000001 -0.077 0.048 2.1219344e-39
0.027000001 -0.077 0.046999998 2.2144874e-39
0.027000001 -0.077 0.046 2.0290185e-39
0.027000001 -0.077 0.045000002 2.1219344e-39
0.027000001 -0.077 0.044 2.2134056e-39
0.027000001 -0.077 0.043000001 2.1215757e-39
0.027000001 -0.077 0.041999999 2.1208582e-39
0.027000001 -0.077 0.041000001 2.0304591e-39
0.027000001 -0.077 0.039999999 2.120854e-39
0.027000001 -0.077 0.039000001 2.305604e-39
0.027000001 -0.077 0.037999999 2.0301031e-39
0.027000001 -0.077 0.037 2.213407e-39
0.027000001 -0.077 0.035999998 2.1215799e-39
0.027000001 -0.077 0.035 2.2137713e-39
0.027000001 -0.077 0.034000002 2.3059585e-39
0.027000001 -0.077 0.033 2.3052481e-39
0.027000001 -0.077 0.032000002 3.0420886e-39
0.027000001 -0.077 0.030999999 2.4896379e-39
0.027000001 -0.077 0.029999999 2.2137755e-39
