# .PCD v0.7 - Point Cloud Data file format
VERSION 0.7
FIELDS x y z descriptor multiplicity pointId
SIZE 4 4 4 4 4 4
TYPE F F F F I I
COUNT 1 1 1 128 1 1
WIDTH 133
HEIGHT 1
VIEWPOINT 0 0 0 1 0 0 0
POINTS 133
DATA ascii
0.058897614 -0.039755937 0.057999998 14 31 25 5 0 1 1 4 38 53 11 0 0 0 2 40 91 36 6 0 0 0 2 42 124 35 0 0 0 0 32 103 13 30 2 0 0 29 72 8 45 109 18 0 0 13 40 16 124 58 5 0 1 12 10 48 124 124 0 0 2 23 9 17 5 0 0 0 1 34 124 61 27 8 1 0 2 124 124 14 124 74 4 1 3 46 27 44 121 86 20 19 12 63 16 15 21 7 5 3 3 11 16 37 1 1 3 16 39 74 15 1 25 62 23 7 36 42 4 1 16 79 84 54 7 8 5 1 1 0
0.077361241 -0.038785372 0.057999998 28 7 10 27 11 11 3 8 181 15 2 1 2 3 2 63 102 6 5 3 10 9 0 18 35 4 1 1 12 2 0 2 43 20 30 10 4 4 6 11 181 31 3 1 1 1 1 36 119 12 5 16 11 9 0 8 43 9 1 2 7 3 0 1 60 46 49 0 0 0 11 30 181 50 4 2 2 2 1 77 115 18 6 24 26 12 1 10 66 12 1 2 11 1 0 1 49 2 1 0 0 1 43 124 181 24 0 0 4 2 1 158 54 19 0 1 39 19 11 15 44 13 0 0 7 2 6 9 1 0
0.13236319 -0.033218652 0.057999998 38 10 4 21 36 15 23 17 127 45 2 16 37 3 8 12 80 25 0 31 87 0 0 1 92 18 0 3 3 5 2 1 31 15 6 31 65 24 15 30 127 45 4 20 62 16 1 20 127 12 0 9 122 23 0 15 127 5 0 1 6 3 0 14 8 6 20 19 55 39 35 37 127 16 5 4 36 33 40 75 83 12 6 12 41 19 10 26 100 0 0 0 3 2 0 22 9 124 127 127 32 5 4 3 44 127 43 1 2 5 34 34 39 20 1 3 17 25 22 11 68 1 0 0 2 1 0 4 1 0
0.063210681 -0.024431076 0.057999998 26 103 19 0 0 0 0 7 18 71 62 10 5 11 3 9 18 31 44 9 3 5 2 6 1 5 34 36 7 1 0 0 40 25 4 1 2 2 6 49 47 37 42 11 31 8 5 21 121 30 24 13 30 12 7 27 2 2 43 53 74 11 3 3 40 8 0 1 1 5 38 84 30 7 1 3 23 59 52 29 71 31 44 48 20 13 20 15 1 2 23 56 61 9 40 29 1 0 0 0 0 27 146 146 0 0 0 0 0 146 146 29 0 0 5 10 5 43 146 39 0 0 3 4 1 2 146 146 1 0
0.058228653 -0.02091285 0.057999998 0 1 3 19 46 9 3 1 127 76 7 7 5 2 3 6 165 100 0 0 0 0 0 0 24 5 0 0 0 0 0 0 2 6 7 4 29 50 53 5 122 23 1 2 27 40 25 10 165 62 0 0 0 0 0 6 53 4 0 0 0 0 0 1 4 32 71 12 13 10 14 5 92 8 16 10 37 25 8 47 165 4 0 0 0 1 1 85 52 1 0 0 0 0 0 5 11 16 15 3 2 6 15 12 83 10 2 0 0 1 5 154 165 3 0 0 0 0 0 156 19 2 0 0 0 0 0 5 1 0
0.016458923 -0.053264454 0.057999998 103 17 0 0 0 1 10 12 147 39 2 1 19 10 25 34 4 3 1 2 147 69 14 5 0 0 0 0 49 30 9 0 79 13 0 0 2 16 20 8 147 47 5 7 23 10 5 22 18 3 5 31 147 57 5 6 0 0 0 3 70 28 28 2 50 1 0 0 3 30 24 18 147 32 32 40 13 20 18 42 10 6 33 147 138 81 26 4 0 0 0 10 29 19 25 5 22 1 0 0 0 10 16 17 121 34 27 21 5 19 33 48 4 5 25 95 52 100 44 5 0 0 0 8 13 24 19 2 1 0
0.093500547 -0.049310304 0.057999998 3 8 13 116 110 4 3 5 64 54 20 35 32 35 45 56 82 3 3 6 1 3 21 123 20 4 4 4 1 0 0 10 8 7 6 123 123 8 5 10 123 64 9 18 18 3 6 82 107 16 9 21 19 2 1 41 36 11 6 6 3 1 1 17 3 10 19 26 95 123 59 4 123 88 6 1 1 34 96 67 91 35 7 8 6 1 8 49 26 1 1 2 2 1 1 25 49 78 88 32 11 37 33 14 69 26 2 0 1 15 108 61 22 0 0 0 1 1 13 55 4 0 0 3 6 1 1 10 1 0
0.088611878 -0.047465965 0.057999998 0 1 20 55 45 24 1 0 6 29 130 48 23 47 33 13 86 114 43 0 4 1 11 30 16 8 0 3 126 66 0 1 7 4 2 13 59 74 6 6 29 12 20 19 130 130 15 5 130 42 8 6 8 6 5 19 49 5 2 18 59 38 0 2 12 4 1 10 50 18 6 14 14 7 22 53 130 100 25 11 130 34 16 6 9 20 26 44 40 4 5 41 60 5 0 1 2 0 0 8 62 7 2 3 16 12 27 57 130 24 5 9 130 44 19 5 9 4 4 36 32 3 0 4 69 20 0 4 1 0
0.073857889 -0.041279651 0.057999998 0 6 31 22 13 10 1 0 125 29 8 21 10 7 2 6 159 52 0 0 0 0 0 3 39 16 0 0 12 5 0 0 0 8 111 21 1 1 3 1 126 71 58 12 1 0 2 15 159 101 1 0 0 0 0 17 59 35 0 0 7 1 0 3 3 1 15 2 1 8 35 24 116 10 8 0 0 0 24 152 159 39 0 0 0 0 0 83 68 16 0 0 2 1 2 27 23 0 0 0 6 19 13 16 116 21 0 0 0 0 2 57 159 68 1 0 0 0 0 12 81 45 1 0 1 0 0 7 1 0
0.016028732 -0.039392687 0.057999998 59 1 0 0 0 0 1 31 130 4 1 4 10 6 13 119 10 2 1 20 130 31 16 23 0 0 0 11 59 11 4 0 106 26 0 0 0 0 0 6 130 37 11 13 17 15 10 41 16 5 9 66 130 58 10 10 0 0 0 25 76 4 0 0 39 58 11 1 0 0 0 5 123 130 124 28 6 5 16 43 7 14 80 130 106 19 12 8 0 2 5 38 26 0 0 0 18 28 19 1 0 0 0 12 51 98 39 8 10 8 29 94 3 15 23 43 130 28 20 14 0 12 17 15 13 0 0 0 1 0
0.049228121 -0.03614153 0.057999998 2 3 7 13 30 33 10 4 48 19 5 3 14 22 14 72 141 7 3 0 0 7 12 116 60 0 0 0 0 9 45 50 3 21 26 22 12 2 2 3 62 65 29 10 12 16 21 12 141 45 10 0 0 2 4 63 58 2 0 0 0 0 1 19 14 13 4 1 1 11 141 49 40 3 1 1 1 43 140 88 141 63 0 0 0 16 40 36 56 32 11 20 0 0 0 1 1 0 0 0 0 47 141 11 2 0 0 0 0 64 141 26 59 18 1 9 4 25 91 35 32 15 28 141 8 0 2 9 1 0
0.074913919 -0.029158454 0.057999998 0 5 49 71 27 2 0 0 99 72 49 20 15 5 1 3 177 103 5 0 1 0 0 4 22 3 0 9 37 15 1 0 1 1 1 7 28 58 28 2 141 17 0 5 15 51 9 6 177 48 0 0 0 1 1 10 39 5 1 14 20 17 3 0 0 10 20 16 19 37 13 1 99 3 3 12 20 66 11 41 177 19 0 0 0 3 3 85 39 14 1 12 53 5 0 2 0 26 68 21 3 1 1 0 142 22 30 18 3 1 0 17 177 8 0 0 0 0 0 46 28 5 0 6 42 4 0 3 1 0
0.090481065 -0.026284192 0.057999998 1 3 75 18 0 0 22 21 3 37 73 22 7 0 11 8 1 12 71 79 23 0 3 1 1 7 115 94 1 0 1 1 22 19 115 72 42 23 3 5 115 106 85 31 31 10 2 10 31 13 32 93 115 31 18 8 6 5 73 57 16 11 74 86 22 4 1 3 23 111 88 35 115 7 0 1 17 78 51 59 44 2 0 0 94 73 63 56 1 2 1 0 4 9 113 115 0 0 0 1 2 31 42 8 12 0 0 0 0 37 72 32 7 0 1 0 1 12 35 29 1 2 2 1 0 5 17 14 1 0
0.14191376 -0.0211465 0.057999998 0 1 16 35 20 15 0 0 1 13 27 14 19 16 0 0 0 1 0 0 0 2 0 0 0 0 0 0 0 0 0 0 7 12 43 119 113 24 2 5 119 119 78 50 21 19 8 28 26 20 2 0 2 69 8 5 0 0 0 0 1 10 0 0 6 5 5 20 119 119 6 7 106 119 87 38 67 79 15 32 98 119 43 7 15 62 6 12 3 4 1 5 64 45 0 0 1 5 5 2 35 78 8 1 21 16 12 16 54 119 119 35 112 52 12 11 15 11 67 78 5 5 3 14 65 27 1 1 1 0
0.14191376 -0.0211465 0.057999998 9 5 30 75 34 0 0 0 21 58 126 87 16 1 3 8 29 60 42 30 17 0 0 5 0 0 0 3 2 0 0 0 8 9 14 126 126 4 4 2 101 57 54 72 59 13 67 126 68 28 6 6 36 7 19 92 0 0 0 1 2 0 0 0 9 14 18 74 126 111 27 15 126 80 25 29 34 32 43 126 57 3 0 20 97 3 4 24 0 0 0 1 2 0 0 0 4 6 8 20 32 76 33 14 41 7 19 35 9 24 47 104 8 1 11 84 37 0 0 6 0 0 0 1 0 0 0 0 1 0
0.11235545 -0.04786386 0.057999998 13 0 0 0 47 7 1 17 32 3 1 6 164 11 0 2 164 13 1 1 18 1 0 1 62 5 0 1 3 0 0 0 21 1 0 1 63 5 1 4 37 7 1 8 164 9 0 2 164 17 0 2 28 1 0 6 85 1 0 1 7 1 0 1 13 8 0 2 53 7 0 1 27 2 0 1 164 58 4 14 164 3 0 0 20 12 4 35 85 1 0 0 4 2 0 2 4 3 0 0 31 20 2 3 12 4 2 8 164 21 1 3 164 29 3 4 21 4 1 6 70 5 0 0 1 0 0 0 1 0
0.11235545 -0.04786386 0.057999998 2 1 0 2 56 1 0 0 13 2 1 10 164 15 3 4 164 12 1 4 19 5 3 16 44 15 2 3 4 2 0 1 5 2 0 7 74 0 0 0 20 9 4 56 164 1 0 0 164 40 5 17 28 1 0 5 60 5 0 1 13 8 0 3 6 0 0 7 90 0 0 1 31 1 0 20 164 7 0 4 164 3 0 3 35 5 0 28 56 3 1 5 19 1 0 3 2 0 0 2 81 2 0 1 27 0 0 11 164 4 1 3 164 3 0 4 22 1 1 15 37 4 2 17 12 0 0 1 1 0
0.089262679 -0.039633613 0.057999998 0 0 0 3 43 32 2 1 23 6 3 6 112 105 4 6 136 23 2 3 11 12 3 16 25 4 1 21 129 26 0 0 0 0 0 4 44 19 5 1 15 11 12 65 136 36 5 7 136 45 11 14 17 9 3 20 26 3 0 32 136 12 0 1 0 0 0 7 56 7 0 0 17 5 5 30 136 58 9 13 136 22 5 5 16 15 8 35 35 2 0 7 136 18 0 2 1 0 0 23 48 6 0 0 5 6 7 76 88 35 28 6 136 34 8 9 6 7 22 41 36 2 0 6 136 29 1 5 1 0
0.089262679 -0.039633613 0.057999998 136 27 0 5 34 2 0 8 6 7 21 41 136 33 7 9 86 35 29 6 6 7 7 77 49 7 0 0 0 0 0 24 136 16 0 2 34 2 0 9 16 14 8 37 136 21 5 5 136 56 9 13 17 5 5 31 56 6 0 0 0 0 0 8 136 11 0 2 27 3 0 34 17 9 3 22 136 43 11 14 136 35 4 7 15 11 12 67 44 19 5 1 0 0 0 4 125 26 0 0 27 4 1 21 12 13 3 18 136 22 2 3 115 104 4 6 21 6 3 6 42 30 2 1 0 0 0 3 1 0
0.11198422 -0.034595754 0.057999998 9 6 0 3 34 12 1 1 18 2 0 5 165 26 3 11 165 2 0 1 27 10 4 46 59 0 0 0 5 2 0 7 3 1 0 4 52 20 2 4 23 6 5 40 165 5 1 3 165 22 5 10 28 1 1 9 71 2 0 1 3 1 0 3 1 1 1 8 76 2 0 1 40 3 1 34 165 0 0 3 165 7 1 5 28 0 0 13 70 4 0 2 4 1 0 2 0 0 0 2 68 5 1 1 42 2 0 16 165 3 0 6 165 2 0 2 19 1 0 26 46 2 0 2 5 1 0 5 1 0
0.11198422 -0.034595754 0.057999998 2 0 0 1 69 3 0 1 38 3 0 5 165 12 0 1 165 18 0 2 22 3 0 2 52 9 1 1 1 0 0 0 3 1 0 1 75 11 0 1 40 1 0 1 165 32 1 3 165 10 0 1 32 5 1 8 71 5 0 1 2 1 1 3 3 1 0 0 60 7 1 1 24 1 0 2 165 51 4 7 165 16 1 3 28 10 5 18 51 26 3 4 3 1 0 1 5 4 1 1 43 1 0 0 11 8 3 20 165 7 0 0 165 51 3 13 35 2 0 1 47 12 0 1 9 8 0 1 1 0
0.060903616 -0.03411182 0.057999998 0 60 126 51 0 0 0 0 1 8 126 126 31 1 2 1 10 78 47 65 28 6 9 2 75 126 27 2 3 1 0 0 9 15 126 44 1 0 0 0 95 39 87 20 5 2 9 31 12 6 5 9 38 50 33 19 101 117 7 5 24 34 10 4 33 5 17 25 30 21 3 22 126 35 7 3 0 0 1 48 23 18 19 57 26 15 3 5 89 11 21 23 8 23 9 19 14 0 0 0 15 126 121 27 46 13 19 15 3 41 46 31 5 9 50 87 7 9 8 1 101 51 20 10 1 1 2 17 1 0
0.089140251 -0.020704567 0.057999998 3 0 0 17 33 4 0 1 0 2 11 70 63 64 27 1 83 14 11 19 7 27 56 75 52 1 0 29 106 5 1 33 1 1 0 14 60 7 0 0 8 29 62 64 132 25 11 1 113 103 38 7 6 8 27 41 30 10 1 46 135 1 0 15 0 0 0 9 69 9 0 0 32 7 4 35 135 23 0 9 135 34 3 3 20 6 0 34 42 5 0 21 135 63 0 8 0 0 0 16 72 12 1 0 18 0 0 34 135 22 13 35 131 7 0 1 5 2 3 109 27 2 0 0 26 70 5 13 1 0
0.089140251 -0.020704567 0.057999998 27 71 5 13 27 2 0 0 5 2 3 109 131 7 0 1 135 22 13 35 18 0 0 34 73 13 1 0 0 0 0 16 135 63 0 8 42 5 0 22 20 6 0 34 135 34 3 3 135 22 0 9 32 7 4 35 69 8 0 0 0 0 0 9 135 1 0 16 30 10 1 47 6 8 27 41 113 103 38 7 133 25 11 1 8 29 62 64 60 7 0 0 1 1 0 14 105 5 1 34 53 1 0 29 7 27 56 75 82 14 11 19 63 64 26 1 0 2 11 70 32 4 0 1 3 0 0 17 1 0
0.017672837 -0.019169571 0.057999998 14 31 11 14 59 6 0 1 129 62 6 3 1 0 1 6 52 25 16 95 97 0 1 1 0 0 1 75 65 0 0 0 48 34 10 29 96 0 0 2 129 35 6 5 4 7 23 75 19 11 14 87 129 33 29 16 0 0 5 81 68 0 0 0 76 33 6 32 72 0 0 0 129 73 41 38 17 2 3 13 14 9 28 129 129 7 3 3 0 0 16 70 29 0 0 0 16 30 12 17 37 0 0 0 35 77 129 26 3 0 0 0 1 6 102 105 23 0 0 0 1 5 17 15 2 0 0 0 1 0
0.017672837 -0.019169571 0.057999998 8 0 0 0 0 4 15 34 21 0 0 0 4 21 100 127 5 1 0 0 28 102 68 16 127 79 0 0 2 11 4 4 78 1 0 0 0 0 7 46 127 15 2 3 19 36 31 103 11 2 2 7 127 127 19 11 101 42 0 0 17 50 9 6 75 4 0 0 0 0 2 36 127 72 24 11 6 5 5 25 14 11 22 35 127 91 15 10 21 7 0 0 28 64 30 6 43 1 0 0 0 0 0 21 127 26 1 0 0 1 3 19 69 7 1 0 42 109 17 19 0 0 0 0 39 79 8 0 1 0
0.069798179 -0.061002202 0.057999998 66 134 12 6 1 0 2 4 17 134 92 0 0 6 2 0 28 100 42 1 10 41 17 1 11 30 7 2 20 72 6 3 26 37 2 0 0 14 70 45 52 128 45 0 0 20 54 41 134 96 16 0 1 8 5 30 38 3 0 0 3 62 23 10 0 0 0 0 0 39 134 126 14 1 0 0 0 105 134 112 113 3 0 0 0 6 50 134 20 0 0 2 1 2 2 12 0 0 0 0 0 5 65 23 0 0 0 0 0 21 59 18 0 0 0 1 1 1 20 31 0 0 0 1 1 0 0 1 1 0
0.060311113 -0.058779906 0.057999998 1 8 67 131 10 0 0 2 47 131 117 15 0 0 2 27 107 105 10 0 0 0 0 11 7 3 0 0 0 1 0 0 48 19 66 69 0 0 0 10 131 28 6 4 0 0 11 131 120 16 0 0 0 0 6 131 9 1 0 0 0 1 0 5 64 9 7 1 0 0 7 99 131 26 0 0 0 0 7 129 104 5 0 0 0 0 0 42 1 0 0 0 0 0 0 1 51 1 0 0 0 1 19 131 59 0 0 0 0 0 37 131 29 0 0 0 0 0 1 27 0 0 3 12 0 0 0 0 1 0
0.10617126 -0.035564888 0.057999998 15 2 0 5 157 20 2 8 157 1 0 1 39 11 4 44 74 0 0 0 10 4 1 7 0 0 0 7 47 21 3 1 15 5 3 21 157 10 2 4 157 23 4 9 41 4 1 12 89 2 0 1 5 3 0 3 0 0 0 14 90 10 1 0 23 3 2 24 157 0 0 2 157 13 2 8 48 0 0 8 90 6 1 3 7 1 0 2 0 0 0 54 77 12 2 0 24 2 0 10 157 3 0 3 157 3 0 3 36 1 0 20 63 2 0 3 8 1 0 5 0 0 4 20 57 26 7 0 1 0
0.054673873 -0.025035596 0.057999998 1 52 137 29 1 0 0 0 33 69 137 56 1 1 0 0 137 62 12 3 0 12 13 10 13 0 0 0 1 137 21 6 40 26 28 8 5 6 5 31 67 60 10 11 27 16 4 5 137 92 1 0 1 1 0 9 36 4 0 0 0 25 1 2 31 7 30 15 4 3 1 26 76 8 18 15 21 9 2 56 137 7 0 0 1 1 1 121 32 0 0 0 0 0 0 7 7 7 26 9 7 94 29 6 137 10 9 2 0 4 13 137 116 0 0 0 0 0 0 134 6 0 0 0 0 0 0 4 1 0
0.082820773 -0.055943709 0.057999998 91 6 9 4 8 16 10 87 136 3 0 1 11 0 0 131 54 3 1 15 77 2 1 16 81 6 0 1 4 0 0 16 132 6 0 0 13 74 32 66 136 39 0 2 20 2 1 62 58 11 1 14 93 20 3 14 92 14 0 1 5 1 1 20 25 1 0 0 26 100 136 124 106 6 0 13 33 4 38 136 60 8 4 47 63 9 3 24 82 3 1 1 8 1 1 29 0 0 0 0 1 20 87 30 0 0 0 5 48 27 28 33 25 1 0 9 38 26 34 55 28 0 0 0 3 2 2 39 1 0
0.081254296 -0.026423939 0.057999998 0 11 140 40 0 0 0 0 6 79 83 15 12 0 0 0 20 21 18 48 50 2 0 0 47 27 7 4 2 0 0 0 14 28 154 94 8 14 3 3 154 154 84 14 12 5 1 6 87 25 2 10 78 33 4 6 86 12 0 2 10 3 2 7 30 8 34 27 12 29 6 12 154 16 4 4 8 7 3 57 111 8 3 28 64 7 1 10 78 7 1 3 13 1 1 15 52 9 25 17 20 19 6 34 154 8 3 1 10 0 0 86 73 4 1 9 67 2 1 13 66 6 0 1 10 0 0 9 1 0
0.080082998 -0.047046348 0.057999998 14 9 46 66 10 10 1 3 154 72 17 7 4 4 0 6 98 17 2 7 19 6 0 2 45 5 0 0 38 6 0 2 30 8 14 29 58 72 6 10 154 22 6 4 4 3 3 40 139 10 0 3 37 5 0 5 63 13 0 1 41 3 0 1 17 0 0 0 45 154 58 17 154 29 0 0 2 32 32 82 114 21 0 4 34 12 1 17 67 9 0 1 32 6 0 5 0 0 0 0 5 154 54 5 35 1 0 0 3 48 109 127 32 2 0 4 28 27 17 44 41 2 0 1 6 8 4 23 1 0
0.029528534 -0.040927947 0.057999998 15 0 0 0 1 3 11 53 99 2 0 0 8 25 26 46 148 21 10 36 4 1 1 32 9 3 67 148 9 0 0 0 48 16 2 2 3 3 2 30 102 19 3 12 35 18 2 15 148 52 6 32 26 32 8 25 3 2 10 81 87 102 5 3 27 59 6 4 2 0 0 0 114 38 7 33 22 0 0 5 148 22 0 1 7 30 8 52 14 1 0 1 73 148 12 8 10 50 12 1 0 0 0 0 76 63 35 25 7 0 0 0 148 86 2 2 1 3 0 2 29 5 0 0 3 79 8 1 1 0
0.052282747 -0.030818429 0.057999998 0 11 90 4 1 18 3 0 0 14 44 7 32 129 6 0 4 5 4 3 27 129 16 1 4 18 12 2 9 41 6 1 1 42 129 26 15 17 0 0 15 104 129 8 8 8 0 0 73 43 32 5 10 113 34 10 4 2 5 3 35 129 16 3 4 8 9 5 30 129 7 3 78 36 18 0 1 27 9 35 129 19 2 0 0 13 4 75 16 0 0 0 23 129 5 9 0 0 0 0 4 129 17 1 26 0 0 0 0 69 83 102 62 0 0 0 0 0 6 124 4 0 0 0 0 8 0 5 1 0
0.12527715 -0.031015826 0.057999998 30 54 43 46 6 0 0 0 22 102 68 38 4 0 0 0 7 27 62 36 1 0 0 0 0 0 25 4 0 0 0 0 120 27 19 59 120 2 0 5 131 96 37 54 81 2 0 8 54 25 56 75 75 9 0 1 0 2 26 8 4 1 0 0 128 3 0 26 131 4 0 10 131 16 1 18 104 4 0 13 58 5 3 32 111 34 2 2 0 0 1 8 11 7 1 0 52 1 0 8 90 65 32 44 131 4 0 5 38 35 51 105 31 1 0 1 32 76 14 23 0 0 0 0 5 14 2 0 1 0
0.042540368 -0.019754883 0.057999998 1 0 0 0 0 0 0 1 17 0 0 0 0 0 0 1 6 1 2 1 0 0 0 0 0 0 5 2 0 0 0 0 18 0 0 0 0 1 30 57 143 11 4 5 0 0 12 52 92 15 92 116 1 0 0 2 10 51 143 48 0 0 0 0 37 7 1 2 2 5 17 58 143 50 9 17 8 8 10 29 53 22 55 143 86 60 4 6 141 71 66 47 17 11 1 4 21 49 12 6 1 1 0 2 143 37 7 5 3 7 4 23 76 5 0 2 56 143 20 22 107 3 0 1 17 87 38 45 1 0
0.044514503 -0.054033734 0.057999998 15 1 0 0 0 0 14 41 146 21 14 16 4 1 5 62 46 44 146 97 13 2 0 2 50 75 57 4 1 0 0 0 32 41 7 0 0 0 2 12 146 40 5 11 17 36 8 55 84 22 29 53 79 146 33 44 146 30 8 2 3 7 11 52 30 68 17 0 0 0 0 0 146 91 4 0 1 19 6 18 73 3 0 0 8 146 102 38 40 0 0 0 1 15 69 80 3 4 1 0 0 0 0 0 39 7 0 0 0 0 0 0 8 0 0 0 0 4 7 1 0 0 0 0 0 1 7 2 1 0
0.064880706 -0.035583511 0.057999998 33 2 0 0 0 0 1 9 26 10 24 5 0 0 0 1 0 18 19 2 0 0 0 0 0 6 5 0 0 0 0 0 128 22 3 1 0 1 7 68 128 73 128 89 25 28 5 15 128 128 91 20 4 5 2 10 26 32 17 6 2 0 0 1 128 102 11 0 0 1 3 19 128 26 6 15 23 128 108 66 128 18 3 3 4 42 85 128 33 3 0 1 3 5 21 29 90 44 4 0 0 0 0 1 98 12 0 0 0 18 33 13 2 0 0 0 0 9 40 31 0 0 0 0 0 1 12 11 1 0
0.021468544 -0.010772232 0 9 12 7 20 36 11 4 1 31 27 14 14 59 8 1 6 80 76 65 2 0 0 18 34 5 12 89 13 0 0 71 50 21 36 10 15 21 13 3 2 71 4 1 7 55 28 2 15 130 67 22 0 0 0 62 130 11 49 104 33 3 5 130 130 25 45 8 8 8 5 5 15 62 19 8 13 46 15 4 12 130 121 125 11 1 0 0 15 6 100 130 30 0 0 1 6 57 4 1 1 8 10 10 35 7 12 12 8 75 31 9 5 6 25 93 25 6 2 16 7 3 44 92 7 0 0 21 15 1 0
0.041696876 -0.015517878 0 30 63 73 36 8 5 2 7 16 16 92 38 10 6 3 11 40 15 28 8 1 1 20 94 30 4 0 0 0 6 68 61 8 8 17 9 7 16 52 24 78 18 21 5 2 16 68 32 110 60 22 0 0 3 30 110 69 54 16 0 0 11 68 38 6 9 12 15 9 20 110 51 26 18 16 5 3 40 110 49 110 58 5 1 3 34 93 110 110 42 3 0 10 76 71 29 10 21 34 39 14 31 25 18 31 34 32 12 4 7 31 86 102 102 3 1 3 20 83 59 72 52 2 0 12 64 36 28 1 0
0.041696876 -0.015517878 0 12 3 14 37 18 19 21 23 75 27 19 35 4 1 3 30 69 33 27 5 0 0 20 94 34 44 9 1 0 0 21 70 2 9 41 105 26 8 4 3 86 108 22 18 1 0 9 25 108 104 48 12 0 0 31 73 48 108 12 1 0 18 74 52 21 5 6 9 5 7 27 64 29 12 6 3 1 2 90 108 108 108 32 6 1 3 36 74 35 108 69 1 0 28 60 38 62 18 11 4 3 4 15 98 6 5 31 41 33 12 26 48 83 31 39 19 4 3 10 64 61 55 19 0 0 2 57 108 1 0
0.015378067 -0.019099141 0 7 0 0 0 35 61 19 11 107 17 0 0 4 4 7 21 184 50 0 0 0 0 1 20 55 6 0 0 1 39 13 4 20 23 3 3 76 79 5 4 100 16 0 0 13 42 24 8 184 36 0 0 0 0 3 9 97 7 0 0 1 1 0 0 39 33 4 1 10 36 20 7 37 12 9 4 3 55 107 23 184 71 1 2 1 4 18 31 109 31 0 0 0 0 0 0 20 19 6 9 14 8 1 5 18 25 51 28 5 2 5 2 184 37 10 3 1 1 1 7 131 10 0 0 0 0 0 2 1 0
0.013000656 -0.019980183 0 50 10 0 0 7 6 1 4 172 24 0 0 0 0 0 5 140 5 0 0 0 5 1 2 1 0 0 0 30 92 1 0 44 3 0 0 7 46 38 13 172 9 0 0 0 2 8 37 172 7 0 0 0 0 0 5 1 0 0 0 17 15 0 0 12 12 13 5 2 32 62 13 172 52 3 3 1 4 16 33 172 36 0 0 0 0 0 3 3 0 0 0 7 2 0 0 17 19 40 21 3 1 0 1 172 19 7 2 0 0 0 16 171 4 0 0 0 0 0 8 3 0 0 0 5 0 0 0 1 0
0.13803455 -0.027833171 0 1 1 0 0 3 85 80 1 44 18 1 1 1 22 42 18 24 5 1 3 27 65 16 19 0 0 0 1 16 40 16 0 19 30 15 42 73 111 89 7 34 13 2 15 86 115 70 15 63 24 0 3 33 57 24 36 5 0 0 0 16 73 82 24 29 58 25 35 121 99 14 3 40 30 31 121 94 11 2 4 121 42 2 9 24 43 23 51 22 3 0 0 31 84 38 35 1 7 12 86 121 87 7 0 33 11 8 72 67 4 0 0 121 51 2 5 10 10 3 4 34 10 15 24 51 30 15 12 1 0
0.13803455 -0.027833171 0 54 28 12 10 46 14 13 21 7 7 2 2 119 68 2 5 83 7 1 0 21 10 7 72 119 111 11 0 1 10 13 66 25 85 37 36 24 4 1 1 23 40 22 42 119 54 3 10 101 15 3 3 34 31 28 119 119 101 14 3 26 64 25 34 12 71 80 28 7 1 0 0 29 59 27 34 62 26 0 2 78 109 76 14 35 14 2 11 59 112 109 7 14 26 12 34 12 39 22 1 0 0 0 1 25 73 17 16 22 5 1 2 1 15 37 17 46 21 1 1 1 61 75 1 3 3 1 0 1 0
0.13260411 -0.028575042 0 7 0 0 4 35 3 5 20 64 20 1 0 0 0 7 81 32 12 0 0 39 99 37 45 2 3 1 0 42 78 9 0 25 2 0 5 20 8 15 47 104 44 5 1 21 24 14 25 131 39 7 8 14 111 61 69 4 2 9 30 34 131 95 5 30 48 22 7 10 3 1 8 76 58 25 3 17 19 13 41 131 77 107 105 5 9 9 43 5 9 128 131 25 42 10 7 0 18 14 4 11 3 0 0 11 89 45 0 0 0 0 3 17 35 116 59 0 0 1 24 5 2 19 47 5 5 28 81 1 0
0.12999761 -0.028559623 0 45 13 0 0 0 0 4 57 35 13 0 0 29 77 33 48 2 2 1 0 57 105 11 1 3 11 14 4 1 7 5 0 58 29 3 1 15 18 11 19 139 40 5 4 10 79 48 61 13 3 9 32 40 139 114 12 0 0 3 8 21 131 43 0 43 39 17 2 14 14 9 28 139 70 83 71 3 7 9 45 14 16 139 139 29 49 12 7 1 5 56 50 55 50 7 6 8 67 28 0 0 0 0 3 16 41 114 51 0 0 0 15 5 2 31 71 4 3 27 85 2 2 6 11 35 17 21 31 1 0
0.12999761 -0.028559623 0 19 0 0 0 16 41 6 42 23 0 0 1 11 33 65 89 3 11 23 9 19 40 28 21 0 5 12 10 30 22 6 2 90 13 2 5 83 22 1 17 131 19 5 6 9 81 76 81 7 5 17 27 32 131 130 11 0 2 6 6 23 73 72 8 67 20 14 8 41 10 4 37 131 56 114 90 3 7 7 41 7 15 131 131 25 53 17 3 0 13 104 41 37 29 14 0 13 48 43 4 1 0 0 5 10 18 105 86 0 0 0 4 1 6 60 56 0 1 4 5 0 12 52 9 0 4 5 1 1 0
0.12999761 -0.028559623 0 47 2 0 0 0 1 2 27 45 2 2 1 10 57 46 63 6 44 38 3 10 57 33 9 11 55 99 8 1 7 8 8 110 12 0 1 4 3 0 14 131 19 6 7 5 75 72 76 8 5 15 48 36 131 131 11 0 4 23 14 51 107 28 0 77 4 1 2 1 0 0 102 131 43 77 98 8 5 3 61 12 16 131 131 31 28 7 9 3 8 32 45 82 23 1 3 47 44 25 1 0 0 0 27 13 18 65 82 21 1 0 7 14 14 26 47 15 2 2 24 5 5 11 21 37 9 3 10 1 0
0.037527673 -0.031644221 0 65 5 0 0 22 44 34 38 22 0 0 1 112 69 8 10 79 0 0 1 16 8 15 88 8 2 2 11 42 28 20 15 124 76 0 0 42 24 2 5 51 6 0 0 124 101 1 6 124 11 0 10 54 11 2 24 29 3 1 23 123 4 2 17 124 124 1 1 15 4 0 0 49 31 1 3 124 62 1 6 124 10 1 23 62 14 1 14 24 4 2 29 69 3 1 23 113 96 1 0 2 0 0 0 54 54 5 15 106 12 0 2 48 11 8 40 39 5 0 6 7 10 27 46 13 0 0 1 1 0
0.037527673 -0.031644221 0 9 0 0 11 12 8 26 34 13 1 0 15 36 8 14 65 89 2 0 11 40 15 6 40 10 0 0 0 137 45 3 9 62 2 3 39 14 1 1 51 48 4 1 52 128 3 2 43 137 10 2 19 54 12 1 28 21 0 0 0 137 62 1 6 92 7 6 25 23 2 2 59 49 6 3 92 137 1 0 14 137 22 1 13 41 4 0 7 32 4 0 4 137 39 0 1 24 28 28 38 7 1 1 7 32 4 13 90 40 1 1 6 137 52 12 12 10 0 0 10 14 13 13 50 137 3 0 0 1 0
0.12833813 -0.039451871 0 22 7 14 1 0 0 0 10 75 1 6 2 1 8 21 124 5 0 0 8 59 87 35 41 3 0 0 5 20 18 13 15 72 2 0 0 0 0 0 15 148 17 0 2 17 14 21 148 35 6 1 35 148 100 37 54 29 4 3 15 49 13 6 41 57 20 0 0 0 0 0 3 148 148 24 14 18 1 0 12 32 77 48 87 148 17 1 9 39 6 10 18 53 11 3 26 7 6 0 0 0 1 14 34 14 100 29 4 8 12 22 12 1 46 113 56 22 2 1 1 3 7 68 25 8 2 1 4 1 0
0.12833813 -0.039451871 0 7 1 1 3 3 6 68 27 21 3 1 1 1 47 112 57 6 11 22 14 12 99 26 3 0 0 10 30 7 6 0 0 55 14 3 24 38 6 12 18 148 22 2 8 31 83 54 77 18 1 0 10 148 148 25 12 0 0 0 2 56 21 0 0 48 12 5 39 34 5 4 13 148 103 35 50 35 7 1 25 19 16 22 145 148 20 0 1 0 0 0 13 78 2 0 0 16 17 14 19 4 0 0 3 59 93 32 35 4 0 0 8 2 11 22 121 77 1 5 3 0 0 0 10 25 8 18 2 1 0
0.12593417 -0.039928205 0 5 0 0 0 0 1 40 38 8 1 1 2 3 7 92 33 15 3 1 0 1 52 111 51 5 10 21 14 8 65 13 1 33 6 1 3 8 4 23 37 95 21 5 32 43 8 17 24 139 17 1 4 35 113 71 86 4 0 0 4 139 139 17 4 13 17 10 27 13 4 27 25 105 18 3 37 47 8 3 21 139 86 33 57 56 13 1 28 7 6 11 100 139 24 1 1 10 19 30 28 2 0 0 2 32 34 11 24 5 0 0 5 61 111 41 45 9 0 0 5 0 5 15 97 81 1 2 1 1 0
0.0095631713 -0.042983647 0 1 0 0 0 0 0 1 1 38 1 0 0 0 0 1 22 164 0 0 0 0 0 0 164 61 0 0 0 0 0 0 76 1 0 0 0 0 1 2 1 122 2 0 0 0 1 1 14 164 7 0 0 0 0 0 66 58 1 1 1 0 0 0 12 1 1 1 0 0 2 4 0 108 19 0 0 0 0 0 0 164 100 2 0 0 0 0 0 51 24 23 41 0 0 0 0 0 0 0 0 0 83 98 0 26 20 0 0 0 50 20 0 145 164 15 1 0 3 0 0 17 73 75 112 0 0 0 0 1 0
0.018708084 -0.044294849 0 1 1 1 1 1 3 13 15 2 1 5 4 2 17 37 22 6 4 17 1 0 2 121 76 0 0 13 4 0 41 154 9 28 2 0 1 2 5 27 78 60 2 0 4 45 53 47 52 154 6 0 0 3 3 89 147 41 1 0 0 0 93 154 43 51 35 8 5 4 1 1 15 85 22 3 27 78 6 2 6 154 13 0 1 5 0 0 22 115 1 0 0 0 9 11 20 52 35 12 1 2 1 0 3 74 15 0 4 53 13 0 4 154 47 0 0 6 1 0 9 84 10 0 0 0 0 0 9 1 0
0.018661728 -0.048834428 0 40 9 1 2 1 1 9 43 63 8 2 17 58 22 17 32 175 0 0 1 7 4 34 85 50 0 0 0 0 86 109 30 52 55 17 2 2 0 0 6 117 21 3 21 67 6 0 7 175 8 0 2 6 0 0 56 81 0 0 0 0 6 3 25 90 20 5 1 2 0 2 23 117 20 8 22 65 8 0 8 175 85 0 2 6 1 0 11 79 15 0 0 0 0 0 5 24 17 12 2 0 0 2 8 63 15 27 20 6 0 0 11 175 30 0 1 1 0 0 28 97 8 0 0 0 0 0 1 1 0
0.015901063 -0.049692452 0 33 12 3 19 36 6 5 13 160 1 0 5 16 2 4 53 133 0 0 0 0 27 48 49 2 0 0 0 1 160 54 2 60 13 2 9 46 5 0 7 160 10 0 3 15 1 0 42 159 2 0 0 0 0 0 45 2 0 0 0 4 34 2 1 54 13 12 22 35 3 0 7 160 69 1 6 11 1 0 8 160 31 0 0 0 0 0 5 1 0 0 0 1 1 0 0 30 9 21 10 1 0 0 7 160 12 1 2 0 0 0 38 160 8 0 0 0 0 0 6 2 0 0 0 0 0 0 0 1 0
0.0050463104 -0.061167896 0 1 1 0 0 2 3 0 0 65 1 0 0 0 0 0 24 175 0 0 0 0 0 0 175 61 0 0 0 0 0 0 74 1 0 0 0 2 3 1 1 153 0 0 0 0 0 1 18 175 2 0 0 0 0 0 56 71 1 0 0 0 0 0 10 1 0 0 0 0 0 2 2 141 17 0 0 0 0 1 5 175 59 0 0 0 0 0 1 73 12 0 0 0 0 0 0 0 0 0 0 0 0 0 0 52 26 0 1 1 0 0 0 175 149 0 0 0 0 0 0 76 50 0 0 0 0 0 0 1 0
0.015038818 -0.011290009 0 20 1 0 0 1 3 1 12 6 0 1 4 5 24 9 5 2 0 0 0 1 24 62 19 0 0 0 0 0 18 66 2 7 2 9 9 1 0 1 12 55 4 16 15 1 1 3 24 140 16 1 1 0 12 140 140 15 3 0 0 0 140 140 26 7 1 3 7 0 4 32 31 56 11 2 2 1 24 42 31 140 140 0 0 0 2 8 27 90 76 0 0 0 48 46 8 57 26 0 0 0 5 11 21 19 19 2 1 7 84 25 9 137 110 0 0 1 19 26 15 134 134 0 0 0 1 0 2 1 0
0.13144788 -0.038108177 0 7 39 34 4 4 2 0 2 36 67 100 38 0 0 0 7 24 5 36 76 6 16 24 80 0 0 2 3 36 53 21 16 1 4 6 2 21 6 0 0 113 15 20 1 1 0 0 17 138 11 3 1 31 61 50 138 13 2 0 1 138 138 33 33 2 0 0 1 31 14 0 0 107 33 0 1 2 1 0 2 138 138 41 20 54 13 4 32 20 40 48 60 138 40 5 9 6 2 0 0 34 13 0 1 22 11 0 0 4 2 3 36 25 110 46 10 7 15 19 36 0 23 97 65 19 9 5 0 1 0
0.024016434 -0.049867518 0 4 1 1 15 85 20 2 1 55 16 1 3 10 2 3 53 59 22 3 8 12 13 33 85 168 2 1 7 15 16 40 107 2 4 2 42 111 3 1 0 50 104 11 6 8 3 2 8 130 91 8 11 17 3 0 10 168 15 2 10 18 3 0 34 0 1 1 14 103 7 2 0 52 17 2 1 4 6 9 31 141 49 28 14 9 1 0 21 168 68 12 13 9 1 0 10 0 0 0 5 57 17 5 2 26 9 1 1 2 3 10 29 50 23 23 3 4 5 3 13 168 12 6 1 0 0 0 35 1 0
0.018051522 -0.052418359 0 40 48 2 0 0 0 0 8 98 17 4 14 16 3 1 14 180 1 0 1 2 2 5 81 35 0 0 0 2 85 26 22 66 22 3 1 0 1 2 21 158 25 13 14 16 2 0 9 180 38 0 1 1 0 0 24 48 3 0 0 3 6 0 5 26 14 8 0 1 2 3 14 160 21 21 6 1 1 0 27 180 14 0 0 0 0 0 43 58 2 0 0 1 0 0 1 8 9 12 4 3 2 3 9 171 13 2 2 2 1 0 18 180 15 0 0 0 0 0 14 44 2 0 1 2 0 0 0 1 0
0.04016706 -0.054102939 0 2 6 32 119 75 3 8 16 29 73 62 92 21 1 0 0 8 23 45 27 31 26 0 1 0 0 2 5 52 113 2 0 4 16 37 119 107 12 4 2 26 60 73 23 24 52 15 5 119 57 43 11 12 15 14 35 6 7 6 32 65 34 12 8 36 57 29 52 28 6 7 9 47 57 37 28 21 106 49 23 119 41 46 81 17 26 12 24 21 24 26 119 33 3 1 2 6 81 48 91 22 1 0 0 6 119 97 35 5 2 0 0 4 24 91 58 5 1 0 1 24 26 20 42 2 0 1 4 1 0
0.046842407 -0.065574557 0 59 6 0 1 3 1 2 11 72 11 3 6 17 12 30 100 109 69 29 7 3 2 10 83 27 89 109 11 2 2 1 11 30 1 0 1 5 20 67 91 57 48 87 11 13 23 21 72 109 65 100 19 8 16 22 73 56 38 18 19 11 29 41 94 3 4 29 31 31 31 41 39 17 14 32 18 38 72 26 35 109 78 41 23 11 8 22 81 31 109 81 53 27 7 6 18 13 19 80 28 5 4 9 6 14 28 47 36 30 3 3 6 9 109 70 25 18 2 4 13 1 30 60 79 59 2 1 1 1 0
0.043064591 -0.01415525 0 11 1 13 4 0 0 10 44 4 1 4 2 1 2 48 80 22 1 1 0 0 0 60 120 17 0 0 0 2 27 120 97 50 46 11 1 0 0 7 31 34 43 53 44 5 6 31 35 120 36 10 6 0 0 4 86 120 4 0 0 7 30 25 102 29 25 7 1 0 0 1 18 47 23 22 10 1 0 33 120 120 25 2 2 1 0 18 106 120 13 0 0 5 10 4 84 41 20 0 0 1 0 0 7 107 62 1 1 1 1 11 35 120 11 1 1 1 1 16 111 120 3 0 0 1 4 14 115 1 0
0.015970856 -0.017810674 0 4 1 3 2 0 4 18 12 38 2 7 1 0 8 19 41 97 1 1 0 0 48 118 138 2 0 0 0 8 160 88 7 62 2 0 0 3 13 19 35 104 5 0 0 14 56 27 28 160 22 0 0 0 19 19 50 35 2 0 0 76 160 20 6 62 4 0 1 3 5 8 46 59 12 7 1 6 27 31 25 160 39 2 0 0 2 8 22 60 9 0 1 95 41 0 0 44 36 8 3 4 3 3 10 41 15 13 7 14 16 6 8 160 22 3 1 2 2 0 13 60 2 0 25 73 1 0 2 1 0
0.13636942 -0.02393847 0 32 34 21 36 50 53 118 97 3 0 1 17 91 128 72 7 7 1 1 4 15 54 36 14 0 0 0 1 12 49 11 0 46 128 80 50 83 15 22 38 14 23 38 128 128 25 6 2 78 8 7 24 13 37 34 37 1 0 0 4 47 86 24 3 9 112 66 29 25 7 2 0 52 27 66 117 29 0 0 1 128 21 3 20 25 4 2 12 4 1 1 27 117 9 1 1 0 2 10 16 11 0 0 0 45 7 7 4 1 0 0 2 128 27 3 9 14 5 1 12 2 2 1 12 67 12 0 1 1 0
0.074958809 -0.040359478 0 58 24 27 13 11 1 0 7 42 17 19 56 154 12 0 5 154 55 6 2 46 4 1 37 38 37 27 8 2 5 3 10 19 19 38 12 17 6 13 8 58 9 12 46 154 19 2 7 154 7 1 9 50 10 3 36 34 10 12 8 6 9 17 17 15 30 6 16 17 9 20 14 53 4 3 62 154 17 5 5 154 22 3 12 52 16 5 30 27 18 16 14 31 21 4 6 8 14 11 9 8 9 38 37 29 6 6 20 154 68 13 6 154 74 6 10 44 9 1 8 25 16 4 11 20 18 16 18 1 0
0.074958809 -0.040359478 0 18 15 16 17 37 25 5 10 59 18 1 4 152 90 5 7 152 85 17 9 14 5 6 17 4 5 30 43 10 21 8 7 33 28 4 5 29 20 14 14 57 19 5 16 152 45 3 9 152 26 5 4 43 7 2 45 16 9 21 15 14 29 6 12 7 8 16 13 32 12 11 9 42 12 4 20 152 21 1 6 152 34 1 5 62 12 11 31 19 6 9 7 19 20 45 15 3 5 3 8 31 31 26 12 23 5 1 29 152 63 9 1 152 27 0 4 51 21 14 33 31 2 0 4 65 25 25 15 1 0
0.017115677 -0.027050609 0 40 0 0 0 1 4 4 37 81 3 0 0 0 14 19 34 148 14 0 0 3 9 3 19 22 2 0 0 133 105 2 2 48 27 1 0 3 2 1 21 76 24 5 2 1 6 5 15 148 27 0 1 3 1 0 9 42 3 0 38 148 11 0 0 62 32 1 0 9 5 1 4 100 24 7 2 5 15 4 11 148 40 19 30 3 2 0 16 23 7 14 148 118 0 0 1 11 29 15 12 13 4 0 1 21 73 62 2 1 0 0 2 47 94 118 55 1 1 7 4 1 3 44 148 14 7 9 0 1 0
0.011097244 -0.039245896 0 1 17 12 2 1 126 61 0 0 0 3 11 38 131 63 0 0 0 1 3 64 48 16 6 15 7 2 0 3 5 22 17 0 96 131 17 2 11 3 0 9 6 131 131 58 43 4 3 39 4 9 41 53 25 66 81 1 0 0 0 4 60 74 28 0 19 101 4 0 0 0 0 57 20 92 31 0 0 0 2 131 68 5 4 0 23 25 59 22 14 0 0 4 131 31 11 0 0 0 0 0 0 0 0 18 13 0 0 0 0 0 0 104 131 2 0 0 1 0 0 18 131 33 0 1 50 5 0 1 0
0.011097244 -0.039245896 0 0 0 0 0 0 0 0 0 15 0 0 0 0 0 1 11 104 0 0 0 0 0 3 127 21 0 3 24 0 0 37 127 0 0 0 0 0 4 106 21 48 2 0 0 0 36 103 17 127 62 24 9 0 6 7 67 33 17 54 127 1 0 0 19 0 0 11 22 2 15 127 90 7 2 14 53 52 127 127 5 40 80 66 23 55 41 11 2 2 21 86 105 4 0 0 0 0 1 72 119 1 1 7 12 0 1 57 114 32 5 1 0 0 3 10 29 83 8 2 0 5 5 19 8 6 4 5 6 1 0
0.12712005 -0.046309676 0 72 2 0 0 0 1 19 75 15 1 1 7 10 74 74 34 0 1 9 7 33 97 15 0 0 8 23 1 3 19 18 0 120 32 12 8 0 2 4 19 53 19 43 120 13 22 12 8 76 13 16 27 27 61 116 94 9 5 4 4 13 120 120 28 26 73 46 10 0 1 5 1 85 27 71 75 1 0 1 4 120 113 39 7 0 2 18 50 19 52 120 82 44 80 44 16 0 3 5 0 0 18 48 1 62 7 6 0 0 5 30 21 91 46 31 16 1 0 1 5 1 8 60 97 10 1 0 0 1 0
0.027133819 -0.016314285 0 2 1 3 1 0 0 2 9 10 0 0 0 0 1 5 22 106 8 0 0 0 0 10 74 127 66 0 0 0 21 113 127 8 0 1 1 0 7 32 69 35 1 0 0 2 58 34 24 127 11 0 0 0 4 14 86 127 127 0 0 0 1 6 32 85 11 0 0 0 6 13 38 31 1 0 0 2 127 33 17 127 60 2 0 1 42 6 12 101 127 2 0 0 0 0 8 114 11 0 0 0 0 0 7 58 2 0 0 1 58 17 20 9 36 2 0 11 125 8 1 26 96 43 3 5 10 0 1 1 0
0.033452019 -0.065080665 0 17 5 0 0 0 0 0 2 42 6 0 0 1 1 24 35 3 0 0 0 1 7 73 69 27 0 0 0 0 2 54 99 32 5 0 0 0 0 0 2 160 21 5 1 0 3 23 60 22 9 28 15 3 14 60 64 40 27 55 4 0 1 16 40 26 3 0 0 0 0 0 1 115 78 49 2 0 0 4 9 9 23 138 46 3 4 19 13 2 23 127 17 2 3 41 19 17 1 0 0 0 0 0 7 72 8 5 0 0 0 86 160 6 2 8 1 0 1 160 151 0 0 1 1 1 6 160 100 1 0
0.034302276 -0.01533947 0 8 5 71 143 60 0 0 6 18 1 26 143 71 2 0 9 95 7 9 19 16 5 23 80 8 4 14 73 46 54 31 14 3 13 143 143 1 0 0 0 107 31 83 66 2 0 0 11 87 27 86 85 0 0 0 16 2 2 57 143 14 0 0 0 4 19 46 4 0 0 0 0 53 95 68 7 0 0 0 1 8 22 110 124 1 0 0 0 1 0 27 119 7 0 0 2 0 1 3 1 0 0 0 0 0 17 25 2 1 0 0 0 0 6 42 22 4 1 0 0 9 1 4 24 5 1 0 10 1 0
0.034302276 -0.01533947 0 0 0 0 0 0 0 0 3 4 1 0 0 0 1 9 28 60 0 0 0 0 1 9 65 134 59 0 0 0 2 43 134 24 4 1 0 0 0 0 32 48 2 0 0 0 13 55 119 92 4 0 0 0 53 78 56 134 134 0 0 0 2 2 34 58 31 0 0 0 2 0 9 134 33 0 0 0 5 11 31 73 9 0 0 0 114 67 30 48 133 14 2 6 62 10 2 29 26 0 0 5 19 0 0 134 84 0 0 0 0 0 2 121 48 11 13 8 38 16 15 1 9 17 48 85 69 7 1 1 0
0.12062721 -0.029613392 0 1 0 0 83 27 0 1 20 4 0 0 13 11 2 13 119 5 0 0 7 20 26 65 57 0 0 0 10 13 28 100 56 20 0 0 41 10 0 1 119 28 15 12 60 16 3 13 91 119 38 13 25 9 12 78 77 13 3 10 119 75 31 79 35 32 5 12 77 12 0 0 91 69 27 12 119 28 0 0 15 119 88 25 60 36 0 0 24 8 6 12 119 119 8 0 1 8 14 46 80 2 0 0 2 19 46 21 47 2 0 0 8 62 119 27 12 10 2 0 24 7 6 7 13 55 32 0 2 1 0
0.037853133 -0.031174561 0 26 0 0 0 6 8 2 10 50 0 0 0 0 11 35 72 86 5 0 0 0 22 41 95 126 32 2 10 32 49 48 103 57 5 0 0 25 17 1 5 126 26 4 4 4 14 11 60 64 50 14 31 40 44 14 22 126 126 65 65 31 6 8 12 27 15 0 0 39 18 0 1 126 106 17 8 6 3 3 13 27 30 26 56 63 37 8 8 126 105 19 11 14 15 27 58 11 5 0 0 25 18 0 0 82 74 8 0 7 6 1 7 13 48 24 12 41 20 3 4 117 126 3 4 27 12 0 1 1 0
0.023704292 -0.05547839 0 88 8 2 2 4 1 0 30 37 19 22 39 19 3 1 14 136 85 31 23 6 10 10 51 23 23 66 129 25 24 6 8 77 42 4 5 4 1 0 12 89 16 7 32 37 1 0 19 136 16 4 10 27 65 46 136 10 3 7 29 81 136 28 19 27 48 13 3 1 0 0 0 86 59 36 24 7 0 0 1 136 136 104 70 19 7 2 16 10 15 70 122 51 22 1 3 0 6 4 0 0 0 0 0 5 20 13 3 0 0 0 0 10 68 68 22 0 0 0 0 0 2 41 30 0 0 0 0 1 0
0.022725288 -0.012010438 0 0 0 0 0 0 0 0 0 1 0 0 0 0 0 4 10 1 0 0 0 0 0 27 54 0 0 0 0 0 0 4 4 1 0 0 0 0 0 0 2 82 4 0 0 0 0 6 72 131 78 4 2 10 17 115 131 9 19 6 12 106 43 52 29 23 5 0 0 0 0 1 10 116 18 0 0 0 1 13 106 131 131 73 13 16 10 14 40 42 120 105 59 131 36 64 31 17 11 0 0 0 12 13 6 93 106 7 0 0 6 6 13 21 68 42 16 42 22 10 8 46 131 49 6 14 20 13 14 1 0
0.052335884 -0.038038705 0 2 0 0 1 14 16 31 9 21 0 0 0 52 22 11 22 86 0 0 0 5 10 40 129 65 3 0 0 2 23 100 129 11 6 2 13 21 2 0 2 79 7 0 5 85 7 1 14 129 53 10 21 14 8 9 96 129 97 28 60 26 16 15 47 21 8 1 10 17 1 0 0 77 15 0 3 76 9 0 8 129 96 12 18 27 6 0 33 129 52 15 42 65 7 2 44 12 24 6 17 15 0 0 0 23 29 5 7 44 7 1 0 63 128 21 9 9 2 0 1 110 106 37 34 21 0 0 1 1 0
0.024636047 -0.039999209 0 33 0 0 0 2 3 12 52 46 3 0 0 1 10 51 86 114 15 4 19 16 41 91 119 1 1 1 18 15 32 29 2 106 22 3 4 6 2 3 27 71 54 13 35 18 10 8 21 119 119 50 103 26 31 19 36 1 1 11 91 25 35 11 1 84 36 3 3 8 2 0 6 78 34 9 22 42 7 0 8 119 81 9 17 25 79 49 79 10 7 4 28 44 116 31 7 19 40 4 1 5 2 0 0 21 46 25 18 12 0 0 0 111 119 71 49 12 3 0 1 5 20 50 111 23 5 0 0 1 0
0.146 -0.015852092 0.054807432 0 12 69 0 0 0 0 0 0 11 56 0 0 0 0 0 0 9 14 0 0 0 0 0 0 0 0 0 0 0 0 0 0 63 170 0 0 0 0 0 18 136 170 0 0 0 0 0 99 169 87 0 0 0 0 1 6 5 0 0 0 0 0 0 0 11 58 0 2 3 0 0 146 51 71 0 0 0 0 13 170 50 9 0 0 0 0 39 13 1 0 0 0 0 0 1 1 1 0 0 5 11 0 0 170 0 0 0 0 1 0 25 170 0 0 0 0 0 0 48 4 0 0 0 0 0 0 1 1 0
0.146 -0.015852092 0.054807432 1 0 3 15 1 0 0 1 163 21 0 2 1 0 0 0 177 48 0 0 0 0 0 0 19 2 0 0 0 0 0 0 0 0 0 2 0 0 69 12 135 10 0 0 0 0 83 55 177 38 0 0 0 0 11 58 36 3 0 0 0 0 0 1 0 0 0 0 0 0 177 56 15 0 0 0 0 0 177 124 103 1 0 0 0 0 84 168 14 0 0 0 0 0 0 6 0 0 0 0 0 0 41 6 0 0 0 0 0 0 28 5 0 0 0 0 0 0 6 5 0 0 0 0 0 0 0 0 1 0
0.146 -0.072839543 0.054393306 0 2 26 1 0 16 25 0 0 1 14 1 0 31 44 0 0 0 2 0 0 35 53 1 0 0 0 0 0 7 14 0 0 38 184 1 0 9 14 0 14 79 184 3 0 27 35 0 136 80 71 2 0 39 87 30 15 0 0 0 0 8 36 14 1 13 77 2 0 0 0 4 130 55 89 2 0 0 0 5 184 40 11 0 0 0 1 32 48 0 0 0 0 0 0 8 1 0 1 8 0 0 0 2 155 1 1 2 0 0 0 11 184 0 0 0 0 0 0 32 32 0 0 0 0 0 0 2 1 0
0.146 -0.072839543 0.054393306 0 6 1 0 0 4 1 0 143 6 0 0 0 2 1 3 180 21 0 9 27 0 0 0 6 1 0 8 26 0 0 0 1 3 0 0 0 0 91 9 129 3 0 0 0 0 89 52 180 20 0 21 51 0 11 39 6 1 0 19 51 0 0 0 0 0 0 0 0 0 180 35 14 0 0 0 0 2 180 87 68 4 0 20 88 29 143 87 1 1 0 23 72 2 0 0 0 0 0 0 0 0 66 5 0 0 0 0 0 2 64 4 0 0 0 2 24 13 20 1 0 0 0 3 15 1 0 0 1 0
0.146 -0.01424715 0.030955346 3 1 0 0 0 0 0 1 28 1 0 0 0 0 1 24 74 0 0 0 6 45 85 121 2 3 2 0 16 118 95 11 1 0 0 0 0 16 67 3 96 6 0 0 0 3 61 33 121 105 48 19 25 37 27 96 29 37 31 19 38 85 121 30 6 11 16 12 5 49 105 19 22 18 18 4 1 28 121 46 52 92 71 8 1 22 76 35 65 90 53 8 1 0 8 31 20 14 14 14 15 45 58 40 21 17 27 6 7 85 86 47 5 26 53 6 5 51 69 37 6 45 44 3 1 8 64 23 1 0
0.146 -0.0072143706 0.016103726 1 1 0 0 0 0 0 1 3 1 0 1 1 0 1 8 4 0 0 0 0 2 45 64 10 2 2 0 1 14 46 53 1 0 0 0 0 0 0 1 57 1 0 0 0 0 0 21 163 13 2 2 3 14 52 135 10 5 5 9 37 107 60 28 0 0 0 0 0 6 67 2 62 8 0 0 0 5 42 9 163 89 59 15 2 2 17 9 9 33 105 62 22 13 16 5 0 0 0 0 0 59 163 0 4 1 0 0 0 60 163 8 8 13 15 4 0 3 163 23 1 8 21 7 0 2 163 18 1 0
0.146 -0.038698189 0.039387748 29 2 0 2 12 3 2 17 101 1 0 1 14 4 3 9 199 5 0 0 0 0 0 11 83 4 3 3 1 1 1 2 48 4 1 6 16 1 0 3 132 7 1 4 10 1 1 7 199 7 0 0 0 0 0 11 107 4 1 1 1 1 4 5 45 2 0 2 24 6 0 7 140 12 0 1 13 3 0 3 199 12 0 0 0 0 0 8 104 4 1 1 0 0 1 4 34 7 2 6 17 1 0 1 101 5 0 2 10 1 1 9 199 10 0 0 0 0 0 6 88 2 0 1 1 0 1 2 1 0
0.146 -0.033450469 0.039456956 26 3 1 5 16 2 0 3 103 7 1 2 6 0 0 3 194 4 0 0 0 0 0 8 95 3 1 0 0 0 1 4 33 2 0 2 28 7 0 4 129 13 0 1 11 3 0 4 194 17 0 0 0 0 0 4 119 4 0 0 0 0 1 3 26 12 4 9 21 0 0 1 122 5 1 2 9 0 1 13 194 12 0 0 0 0 0 7 129 4 0 1 1 1 1 2 3 31 25 2 3 0 0 0 96 32 11 1 1 0 0 4 194 12 0 0 0 0 0 3 110 3 0 0 0 1 2 2 1 0
0.146 -0.040520392 0.032859992 20 18 0 0 0 1 1 3 77 7 0 0 1 2 10 96 15 1 0 1 31 18 27 51 177 7 0 0 5 3 4 12 41 8 0 0 0 0 0 1 177 16 0 2 3 0 0 10 40 5 1 15 53 5 3 9 177 4 0 1 5 2 3 26 43 8 0 0 0 0 0 2 177 9 0 1 7 2 0 22 42 11 2 14 55 8 0 7 177 14 1 1 1 0 0 9 35 5 0 0 0 0 0 1 177 7 0 1 7 2 0 9 31 4 0 6 58 10 1 5 177 20 0 0 2 1 0 8 1 0
0.146 -0.0034369889 0.032974627 33 6 0 3 6 15 62 29 48 1 0 2 43 81 54 14 180 0 0 0 10 8 4 29 11 0 0 0 0 0 0 1 80 67 9 18 12 5 5 15 85 24 10 61 125 36 8 11 180 4 0 8 21 3 0 29 17 0 0 0 0 0 0 2 78 35 12 10 7 8 6 57 101 16 15 79 112 46 8 27 180 7 1 8 17 5 0 29 21 0 0 0 0 0 0 2 45 41 17 10 5 6 3 13 92 16 17 74 60 32 3 9 180 8 1 6 5 2 0 12 21 0 0 0 0 0 0 1 1 0
0.146 -0.0037563171 0.028098963 47 35 10 19 11 3 2 18 67 31 9 41 83 29 8 22 195 3 0 11 31 6 0 30 21 0 0 0 0 0 0 3 69 48 18 5 3 5 4 30 90 34 32 112 78 33 7 30 195 11 3 23 24 7 0 27 30 0 0 0 0 0 0 3 75 28 8 5 3 5 4 14 98 19 12 36 77 48 6 19 195 7 1 5 16 10 1 25 32 1 0 0 0 0 0 1 63 29 4 4 1 1 4 32 66 9 4 15 55 33 13 26 195 26 3 5 14 6 1 5 25 2 0 0 0 0 0 0 1 0
0.146 -0.0035334548 0.02043613 52 16 4 6 6 5 3 10 85 6 4 16 63 36 4 16 186 2 0 1 5 4 1 24 18 0 0 0 0 0 0 1 65 14 3 3 4 6 10 54 98 9 5 19 71 38 12 17 186 21 2 3 6 3 1 5 21 1 0 0 0 0 0 0 78 93 62 12 6 6 9 44 95 18 71 66 94 30 8 10 186 22 3 4 9 2 0 2 18 1 0 0 0 0 0 0 3 46 69 3 0 0 0 0 114 23 85 22 2 0 0 11 186 12 3 1 0 0 0 48 11 0 0 0 0 0 0 2 1 0
0.146 -0.0074581224 0.018908439 1 1 0 1 0 0 0 2 0 0 0 2 1 0 17 33 3 1 0 0 0 1 46 69 2 2 1 1 1 3 80 18 23 1 0 0 0 0 0 13 100 8 1 1 2 13 64 148 10 4 3 6 12 83 104 57 4 6 5 4 2 9 65 22 33 2 0 0 0 7 95 11 157 75 38 11 2 5 63 37 13 27 93 51 18 29 76 15 3 11 48 35 5 11 82 10 1 0 0 0 0 55 158 6 8 7 6 1 0 7 158 41 2 4 12 4 0 1 158 42 1 1 4 4 1 6 158 19 1 0
0.146 -0.0035957412 0.01529837 53 23 4 3 3 5 6 39 96 15 5 14 59 32 9 15 176 38 1 1 4 2 0 1 2 0 0 0 0 0 0 0 52 102 71 9 2 2 3 18 103 35 110 67 46 16 4 6 176 46 4 4 4 1 0 5 5 1 0 0 0 0 0 0 1 18 30 1 0 0 0 0 164 16 45 6 0 0 0 12 176 10 1 0 0 0 0 68 8 0 0 0 0 0 0 3 1 1 0 0 0 0 0 0 171 4 0 0 0 0 0 3 176 10 0 0 0 0 0 13 13 0 0 0 0 0 0 1 1 0
0.146 -0.061198767 0.053536322 0 4 36 0 0 0 0 0 0 5 26 0 0 0 0 0 1 6 4 0 0 0 0 0 0 0 0 0 0 0 0 0 0 29 177 20 7 0 0 0 20 114 177 0 0 0 0 0 145 177 69 0 0 0 0 1 21 7 0 0 0 0 0 0 0 4 50 15 32 2 0 0 136 40 66 0 1 2 1 10 177 47 8 0 0 0 0 33 44 2 0 0 0 0 0 3 0 1 4 4 20 1 1 0 138 9 2 0 0 1 1 14 177 58 21 0 0 0 0 22 17 22 60 0 0 0 0 1 1 0
0.146 -0.019862125 0.038771234 11 29 6 0 0 0 0 2 43 41 14 2 0 0 0 3 155 7 0 0 0 0 0 51 111 0 0 0 0 0 2 23 8 8 1 0 0 5 24 29 94 19 2 0 0 12 34 13 155 22 2 0 0 0 2 44 109 15 12 0 0 0 1 17 67 20 1 0 0 13 41 57 37 19 5 14 13 44 128 23 155 148 130 25 16 7 19 17 23 121 155 0 0 0 0 1 23 22 1 0 0 8 26 16 11 29 13 43 44 7 11 4 2 16 54 52 60 2 1 1 2 29 119 1 3 3 1 1 1 0
0.146 -0.035183333 0.032780454 22 4 0 0 0 0 0 0 134 8 0 1 2 0 0 5 61 3 0 6 17 3 1 6 194 5 0 0 1 0 0 7 29 5 0 1 1 0 0 0 178 6 0 1 4 1 0 9 79 7 0 5 28 6 0 3 194 16 0 0 0 0 0 1 27 1 0 0 0 0 0 5 171 18 2 2 4 0 0 7 71 10 4 9 28 3 0 3 194 16 0 0 1 0 0 4 18 6 1 0 0 0 0 5 41 54 18 1 0 0 0 5 39 54 35 4 2 0 0 1 194 32 1 0 0 0 0 1 1 0
0.146 -0.031735301 0.032701399 20 4 1 1 1 0 0 0 169 3 0 0 1 0 0 12 59 4 0 7 25 4 0 6 190 5 0 1 2 0 0 9 26 2 0 0 0 0 0 4 190 8 1 1 2 0 0 11 71 6 2 10 42 5 0 4 190 6 0 1 4 1 0 12 28 5 0 0 0 0 0 12 108 67 14 1 0 0 0 16 41 62 40 12 8 0 0 2 190 19 2 1 1 0 0 13 8 9 3 0 0 0 0 2 7 56 20 0 0 0 1 3 27 73 36 0 0 0 1 2 190 62 2 0 0 0 0 1 1 0
0.146 -0.04467215 0.038798179 1 0 0 0 0 3 7 11 122 0 0 0 0 0 5 52 188 0 0 0 0 0 15 96 43 0 0 0 0 0 73 33 22 1 0 0 0 1 11 39 139 0 0 0 0 1 20 57 188 3 0 0 0 0 0 11 78 8 5 0 0 0 0 1 78 4 0 0 0 0 0 7 144 3 0 1 1 1 2 9 188 4 0 0 0 0 0 3 74 4 3 0 0 1 2 2 67 2 0 0 0 0 0 2 114 5 0 1 2 1 0 1 188 8 0 0 0 0 0 0 64 2 0 1 1 1 1 1 1 0
0.146 -0.072278991 0.010227333 1 0 0 0 0 0 0 9 48 0 0 0 0 0 0 50 153 0 0 0 0 0 0 100 6 0 0 0 0 0 0 11 14 3 2 0 0 0 0 22 142 26 10 0 0 0 0 41 204 12 0 0 0 0 0 66 28 0 0 0 0 0 0 8 6 4 11 3 0 0 0 3 187 20 18 2 0 0 0 3 204 6 0 0 0 0 0 20 33 0 0 0 0 0 0 2 1 0 1 4 0 0 0 0 178 1 1 0 0 0 0 6 204 0 0 0 0 0 0 18 24 0 0 0 0 0 0 1 1 0
0.146 -0.062178362 0.052128546 0 1 13 2 0 0 0 0 0 4 16 0 0 0 0 0 1 3 1 0 0 0 0 0 0 0 0 0 0 0 0 0 0 4 91 79 59 0 0 0 25 101 144 18 4 0 0 1 144 127 27 0 0 0 0 4 29 3 0 1 1 0 0 1 0 0 7 64 144 0 0 0 134 35 32 15 20 0 0 13 144 73 12 0 0 0 0 33 39 19 30 3 1 0 0 2 0 0 0 43 144 0 0 0 64 44 2 5 9 0 0 2 105 144 100 0 0 0 0 2 3 80 144 0 0 0 0 0 1 0
0.146 -0.021690331 0.046366494 80 6 0 1 2 0 0 9 162 3 0 0 0 0 0 53 137 2 0 0 0 0 2 25 1 2 0 0 0 0 1 1 78 24 0 0 0 0 4 28 162 54 9 0 0 0 2 40 124 47 43 0 0 0 3 18 0 4 7 0 0 0 2 1 26 2 1 4 4 1 29 94 118 137 142 27 15 1 6 25 46 162 162 1 0 0 0 2 7 43 31 0 0 0 0 0 2 0 0 3 15 15 34 16 3 6 23 19 47 42 16 8 110 51 28 1 1 4 12 54 24 10 1 0 0 0 0 5 1 0
0.146 -0.021690331 0.046366494 0 0 1 1 28 68 16 0 0 0 0 0 2 58 54 22 1 0 0 0 0 2 94 85 0 0 0 0 0 3 145 48 11 15 40 44 13 15 8 1 122 27 15 1 0 31 116 141 17 0 0 0 0 1 151 151 0 0 0 0 0 1 151 98 27 11 11 20 25 25 54 20 151 42 4 1 0 1 28 105 119 7 0 0 1 3 47 46 1 0 0 0 2 4 22 8 1 0 0 0 0 8 75 18 72 1 0 0 0 0 25 56 30 1 0 0 0 0 0 2 0 0 0 0 0 0 0 0 1 0
0.146 -0.051876593 0.037212264 0 0 83 23 0 0 0 0 8 1 65 17 0 0 1 21 13 4 32 5 0 0 70 123 60 14 4 0 0 0 83 146 1 0 1 0 0 3 7 2 95 1 0 0 0 1 3 48 148 13 0 0 0 0 53 148 37 5 0 0 0 0 110 140 7 3 0 0 0 6 5 5 110 6 0 0 0 0 2 45 148 75 0 0 0 0 0 13 100 35 2 0 0 0 1 4 8 3 0 2 16 17 2 0 83 21 0 0 1 0 0 3 148 78 0 0 0 0 0 1 119 35 0 0 0 0 0 1 1 0
0.146 -0.039101858 0.012105885 13 141 93 5 57 0 0 2 4 157 172 1 0 1 5 4 0 16 172 58 1 5 5 1 19 149 172 56 8 4 3 1 25 13 1 3 70 5 0 7 68 31 27 2 3 13 55 84 3 5 43 23 60 102 57 13 55 91 14 7 21 10 0 0 17 11 1 8 44 2 0 1 66 90 44 8 2 3 5 15 3 13 51 83 65 20 5 3 25 16 1 15 25 2 0 0 0 0 0 0 1 0 0 0 0 2 1 0 0 0 0 0 0 0 2 2 0 0 0 0 1 0 0 0 0 0 0 0 1 0
0.146 -0.039101858 0.012105885 0 0 0 0 0 0 0 0 1 9 31 1 0 1 18 9 1 9 78 3 0 7 25 10 45 14 84 0 0 3 13 105 1 0 0 0 0 0 0 1 43 8 3 3 5 15 66 88 22 2 3 14 55 88 71 33 175 0 0 1 5 4 7 175 2 3 1 0 0 0 0 0 52 87 69 20 5 3 3 14 51 20 62 103 55 14 3 6 175 27 1 4 5 1 0 55 0 1 0 0 0 0 4 0 1 17 25 2 0 1 34 20 20 8 21 9 0 0 62 89 175 58 11 3 1 0 13 141 1 0
0.146 -0.039101858 0.012105885 0 0 1 106 88 1 1 2 0 0 0 10 3 1 14 16 0 0 0 0 0 1 6 2 0 0 0 0 0 0 0 0 11 1 0 36 82 26 8 12 59 16 3 3 4 18 48 91 3 3 3 13 41 54 33 11 0 0 0 2 5 0 0 0 8 2 0 0 20 199 61 2 46 70 42 13 10 72 7 10 3 14 44 92 55 14 2 2 0 0 0 10 11 1 4 18 0 0 0 0 41 199 13 0 0 2 6 7 128 199 0 0 3 1 8 20 17 4 1 35 11 0 0 1 1 0 14 199 1 0
0.146 -0.039101858 0.012105885 3 1 24 154 167 48 5 3 0 0 47 92 10 6 21 10 0 0 18 12 1 13 25 2 0 0 0 0 0 0 0 0 5 1 0 8 167 94 1 5 55 14 3 4 36 25 58 102 5 3 3 13 50 78 61 20 0 0 0 0 2 2 0 0 5 4 2 110 167 9 0 1 52 82 64 29 31 3 2 13 5 15 65 90 44 8 2 3 0 0 0 2 1 0 0 0 0 1 13 161 147 2 36 1 0 6 25 15 2 1 57 8 0 1 16 12 1 6 53 4 0 0 0 0 0 0 2 0 1 0
0.146 -0.028861588 0.028743446 0 1 8 0 0 0 1 0 26 28 114 0 0 0 5 17 116 40 35 0 0 0 26 177 10 1 0 0 0 0 19 48 0 0 3 0 0 0 2 0 164 12 18 2 0 3 16 46 177 72 5 0 0 0 19 177 45 16 3 0 0 0 14 50 0 0 1 0 0 0 3 4 100 17 7 0 0 0 15 93 177 177 73 0 0 0 1 29 13 59 34 0 0 0 0 0 0 0 0 0 0 0 0 1 1 1 0 0 0 0 1 12 2 17 8 0 0 0 0 3 0 4 3 0 0 0 0 0 1 0
0 -0.057666801 0.042803399 19 20 57 75 48 10 2 9 82 17 9 18 23 13 5 18 112 36 16 73 86 7 4 27 1 0 3 98 112 6 1 1 28 58 15 25 69 4 0 1 48 75 36 58 21 2 1 4 59 87 88 112 44 18 16 10 0 0 5 108 102 14 2 0 41 29 11 25 54 3 2 13 65 37 22 42 42 17 4 23 97 65 54 54 57 73 61 69 0 1 9 66 112 57 10 1 7 20 43 21 10 1 0 1 12 35 65 38 7 2 0 1 20 66 112 66 13 1 0 1 0 1 22 75 29 1 0 0 1 0
0 -0.057666801 0.042803399 6 2 100 116 5 0 1 7 53 18 26 48 2 0 2 35 21 17 25 19 9 6 18 42 8 10 11 12 6 3 31 108 32 26 21 24 4 2 15 38 37 17 46 26 7 3 12 34 95 54 54 13 2 1 5 113 27 20 105 96 5 4 28 116 31 69 33 8 2 0 1 7 80 44 29 27 18 22 54 116 38 59 97 55 76 46 36 28 4 13 116 116 2 0 0 2 13 33 10 0 0 0 0 1 51 116 100 32 9 4 4 16 3 12 81 112 48 8 3 2 0 2 16 20 2 0 0 0 1 0
0 -0.019440558 0.042691078 2 0 0 0 5 7 23 16 12 1 0 0 0 11 64 51 19 4 0 1 14 63 125 77 0 0 0 0 27 86 33 1 33 3 0 1 15 25 20 42 66 34 3 7 16 27 40 45 125 96 7 7 68 64 42 63 3 1 1 2 125 125 10 4 25 2 0 0 30 69 19 39 50 8 1 3 24 56 27 29 125 51 0 5 44 30 10 25 18 8 0 4 125 98 2 3 10 4 1 0 68 125 17 8 20 16 16 12 13 27 16 16 125 35 2 8 15 15 9 20 41 8 0 1 125 112 10 13 1 0
0 -0.024937207 0.042637244 22 3 0 1 7 20 13 30 104 24 1 1 10 30 14 14 107 27 1 6 112 54 4 15 0 0 0 0 118 58 0 0 24 10 6 2 13 40 13 20 67 22 9 14 17 31 20 12 119 46 0 4 75 52 9 21 2 0 0 1 119 118 5 3 3 6 12 22 66 119 16 10 36 8 10 10 10 13 37 47 119 62 2 5 37 37 16 35 14 13 1 6 119 119 5 4 2 0 12 30 38 45 116 26 11 3 4 22 33 29 39 48 99 67 1 15 25 12 6 4 35 21 1 4 117 85 1 2 1 0
0 -0.046666291 0.042502083 33 14 1 24 46 1 1 9 31 14 3 15 39 33 9 23 57 36 10 15 28 23 15 66 2 5 8 44 145 43 7 5 52 20 4 14 44 2 2 12 60 31 26 47 26 29 9 18 145 18 3 16 49 29 16 51 6 2 1 27 145 53 9 7 40 50 15 12 49 38 3 11 68 41 43 56 36 26 8 12 145 42 7 38 65 9 4 13 10 3 3 80 145 14 3 2 8 17 14 39 105 45 2 6 65 17 25 23 14 10 4 14 145 22 3 16 56 14 8 41 4 1 1 42 145 23 3 3 1 0
0 -0.049580421 0.042361066 35 15 3 9 25 1 2 9 38 22 20 33 18 19 6 11 141 13 3 11 23 16 10 30 9 1 1 18 141 40 8 7 32 50 15 8 47 39 2 8 52 40 45 56 29 20 6 9 141 44 7 32 41 5 2 8 16 5 3 80 141 9 2 2 10 14 15 48 114 42 2 8 66 14 22 20 18 12 5 16 141 20 3 13 44 13 9 52 9 2 1 43 141 30 5 5 26 26 21 30 9 2 2 11 59 16 10 21 22 12 4 10 141 53 19 53 31 1 1 13 3 3 6 121 141 2 1 1 1 0
0 -0.053403325 0.033046182 1 0 0 0 4 64 94 21 10 1 0 0 5 59 54 15 25 1 0 0 1 8 53 65 4 0 0 0 0 15 124 13 21 7 16 8 29 59 60 56 34 2 6 19 124 124 39 24 124 2 1 8 29 16 37 116 23 19 14 14 12 27 106 21 4 46 124 23 9 4 2 9 39 21 124 114 88 3 0 2 124 80 26 42 24 8 0 7 18 20 77 116 18 12 1 3 2 12 54 1 0 1 8 9 17 17 39 8 0 1 8 19 39 73 61 28 0 2 4 3 3 8 55 64 0 1 4 9 1 0
0 -0.040351719 0.024871383 0 0 7 100 88 22 4 0 49 0 1 54 68 2 2 43 74 0 1 27 53 12 9 63 51 0 0 17 59 15 4 41 9 2 36 120 27 1 0 3 96 5 2 34 23 1 5 120 31 1 1 65 111 1 6 53 116 0 0 21 32 0 2 109 38 9 32 44 12 4 0 2 120 40 13 19 17 0 1 13 52 8 8 71 120 0 1 20 120 15 3 4 8 0 3 120 50 14 9 18 4 0 0 4 43 59 39 9 2 0 0 2 95 14 33 36 18 0 0 34 120 20 8 3 6 24 7 97 1 0
0 -0.040351719 0.024871383 4 5 5 16 130 40 3 5 18 0 0 0 23 25 55 34 1 0 0 0 52 59 27 5 48 13 1 0 12 9 9 49 17 3 1 29 130 32 8 3 130 8 1 2 45 27 14 24 15 1 1 7 130 96 9 14 23 8 1 0 11 9 22 76 19 1 1 107 130 18 1 1 130 12 3 20 37 4 0 11 41 3 3 75 130 15 0 12 97 2 1 4 7 2 6 82 19 4 4 26 130 25 0 1 113 22 4 11 45 3 0 11 49 7 2 26 124 8 0 6 94 27 10 4 2 0 0 17 1 0
0 -0.037845701 0.022804683 0 0 7 81 107 52 22 12 16 4 2 2 38 76 12 27 35 5 3 0 12 37 51 59 102 41 0 0 14 30 11 10 0 0 4 46 64 85 103 8 41 8 0 7 116 48 11 12 116 28 0 4 69 22 5 25 86 26 0 2 79 21 1 11 3 2 10 75 116 42 23 2 36 10 2 62 116 5 1 10 116 40 0 4 61 16 3 37 87 14 0 1 91 24 1 14 1 3 92 116 65 19 36 21 13 18 12 67 35 14 4 0 60 99 21 12 18 3 0 0 50 26 19 22 51 9 0 0 1 0
0 -0.037845701 0.022804683 53 7 0 0 63 23 17 20 22 3 0 1 64 92 22 12 29 12 3 0 17 20 13 63 56 23 41 19 1 3 87 115 91 18 1 18 90 11 0 1 64 14 3 42 115 35 0 4 115 3 1 12 37 10 3 67 115 33 15 2 2 1 15 93 82 19 2 12 85 21 0 2 68 20 5 28 115 23 0 4 115 42 11 12 39 6 0 10 71 90 104 5 0 0 5 43 14 30 12 11 96 35 0 0 12 35 49 61 33 4 3 0 46 76 12 25 13 3 2 3 99 45 24 13 0 1 9 95 1 0
0 -0.024409877 0.016585018 3 0 0 1 2 49 87 39 4 1 1 4 10 36 87 61 4 2 12 18 5 39 69 18 2 2 14 7 1 12 72 46 50 9 4 14 34 67 35 56 32 20 16 70 112 35 38 49 112 46 16 19 17 34 93 46 13 6 4 8 34 27 100 68 36 84 112 59 14 2 0 3 31 54 79 48 112 25 12 27 112 43 91 41 15 10 11 57 9 61 97 54 42 1 1 2 2 45 81 11 0 0 0 0 9 72 87 10 2 0 1 1 4 24 97 65 1 0 0 2 3 43 82 24 1 0 0 0 1 0
0 -0.024409877 0.016585018 1 0 0 0 3 41 81 24 2 0 0 2 4 23 95 66 2 0 1 1 9 72 88 10 0 0 0 0 2 44 84 12 41 1 1 2 9 61 101 54 15 10 11 55 112 43 91 43 112 26 12 26 31 54 79 47 15 3 0 3 36 83 110 61 36 26 96 68 14 7 4 8 17 32 94 46 112 48 16 19 112 36 38 49 33 20 16 68 33 69 37 57 49 9 4 13 1 12 74 49 3 2 13 7 5 38 72 19 4 2 12 18 9 35 85 61 4 1 1 4 2 46 85 41 3 0 0 1 1 0
0 -0.049184892 0.016327523 15 0 0 1 10 45 43 34 0 0 4 4 6 84 77 2 0 4 14 3 2 43 91 2 0 6 16 4 0 23 38 4 121 28 2 14 18 39 26 38 17 12 13 68 94 103 65 8 88 34 14 15 7 55 110 25 7 1 1 3 10 92 121 14 121 111 42 59 13 2 1 1 58 23 39 121 86 2 0 2 121 56 46 21 5 3 4 19 13 25 56 25 51 19 17 3 8 29 43 35 3 2 1 0 25 25 24 67 7 3 1 0 46 85 92 13 0 0 0 0 1 53 121 14 5 1 0 0 1 0
0 -0.049184892 0.016327523 0 0 0 0 0 14 42 37 37 3 2 1 2 47 23 28 77 1 1 0 1 56 60 102 48 11 2 0 4 114 26 9 5 2 0 0 5 34 107 118 64 2 0 0 64 121 37 38 121 52 19 2 8 54 16 56 22 16 27 14 64 121 9 5 37 41 42 17 8 12 30 24 10 2 81 40 66 117 22 13 51 45 106 63 9 22 17 17 2 24 121 48 29 11 0 0 8 10 79 94 2 4 2 1 0 1 121 70 3 2 6 4 2 4 72 49 2 1 7 13 5 11 26 6 0 0 4 16 1 0
0 -0.028005397 0.033783697 6 9 18 2 3 2 4 13 34 19 11 2 2 4 19 23 24 5 3 1 0 39 65 39 13 4 2 0 0 32 40 15 4 5 2 1 1 3 88 115 47 3 0 0 31 67 85 85 115 16 0 0 6 72 51 66 17 3 1 2 10 112 111 36 18 4 46 28 7 9 85 115 25 9 33 69 115 56 33 21 115 96 56 20 23 11 2 13 24 20 111 84 26 23 8 5 3 10 115 99 2 1 2 3 3 32 97 70 16 0 0 0 6 53 70 22 6 0 0 0 13 13 84 34 1 0 1 10 1 0
0 -0.056338541 0.032799363 21 0 0 0 3 7 18 19 124 8 1 2 1 2 7 124 42 5 5 57 95 38 16 56 0 0 0 42 122 41 1 0 53 1 0 0 10 15 5 15 124 32 9 6 3 6 3 54 32 12 16 88 124 39 4 11 0 0 0 41 124 26 1 0 28 3 0 1 4 23 16 27 122 95 48 7 1 4 59 56 7 23 82 123 59 47 51 4 0 0 0 28 47 37 8 0 48 19 0 1 2 5 10 30 65 61 6 1 1 4 94 79 3 5 5 5 72 95 88 5 0 0 0 2 70 44 6 0 1 0
0 -0.046213951 0.015805302 3 8 4 7 36 107 34 16 1 0 2 8 76 78 17 7 0 2 20 7 16 59 18 3 0 4 33 9 2 10 2 0 5 79 71 111 47 14 1 2 111 14 10 84 56 31 31 60 21 4 5 35 44 111 58 26 5 4 7 4 4 111 69 6 12 48 75 75 3 0 0 0 111 104 90 71 4 2 1 8 91 38 90 111 28 11 4 16 79 23 13 9 8 70 48 36 1 26 35 4 0 0 0 0 4 25 68 24 1 0 0 0 63 81 49 19 0 0 0 2 30 110 80 8 4 1 0 3 1 0
0 -0.046213951 0.015805302 11 1 0 0 0 1 6 17 19 2 0 0 0 7 31 59 81 7 0 0 0 9 40 67 27 3 0 0 1 3 92 107 26 1 0 0 0 50 88 51 107 11 2 1 2 65 84 107 107 41 3 4 21 107 67 26 78 95 62 12 4 5 27 29 15 5 15 15 17 107 66 46 107 53 68 40 14 62 17 24 12 30 107 85 51 51 5 2 5 61 90 19 8 3 0 1 4 8 94 99 7 7 1 2 3 3 92 89 6 6 3 8 9 9 63 23 0 0 0 22 11 10 10 3 0 0 3 40 1 0
