# .PCD v0.7 - Point Cloud Data file format
VERSION 0.7
FIELDS x y z descriptor multiplicity pointId
SIZE 4 4 4 4 4 4
TYPE F F F F I I
COUNT 1 1 1 128 1 1
WIDTH 130
HEIGHT 1
VIEWPOINT 0 0 0 1 0 0 0
POINTS 130
DATA ascii
0.056606479 -0.016533569 0.072999999 21 30 54 16 28 8 12 17 116 54 12 0 16 6 3 58 15 3 0 13 115 60 0 7 7 4 4 24 63 44 1 3 36 58 36 23 110 24 6 12 130 130 12 1 15 4 2 33 35 9 0 24 130 56 9 3 5 5 3 49 82 49 98 7 27 2 1 4 82 84 46 28 130 19 0 0 9 7 22 73 59 5 0 0 62 38 32 31 9 0 0 1 7 30 130 34 3 0 0 0 20 38 97 57 68 7 0 0 1 3 99 99 26 3 0 0 2 7 31 50 6 0 0 0 0 0 10 19 1 0
0.095336981 -0.0057423399 0.072999999 3 1 1 23 10 6 37 29 143 10 1 0 1 4 65 52 143 30 0 0 0 0 1 12 22 5 0 0 0 0 0 0 9 14 10 3 2 2 15 25 115 38 25 0 0 1 20 39 143 42 4 3 0 0 1 27 26 9 19 18 0 0 0 0 18 12 8 3 2 0 4 25 91 8 4 0 0 0 9 143 143 9 11 77 1 0 0 129 8 3 43 143 0 0 0 1 51 35 4 0 0 0 5 17 143 46 12 12 0 0 1 63 31 10 34 143 1 0 0 21 0 0 33 128 1 0 0 1 1 0
0.088502258 -0.051365215 0.072999999 0 0 27 80 36 0 0 0 12 9 68 80 51 16 2 5 22 4 2 7 31 101 20 32 82 9 8 40 19 9 10 65 3 3 8 69 117 6 0 0 117 46 31 49 54 6 5 31 40 29 9 14 81 37 13 26 27 53 13 37 97 29 3 17 3 2 1 14 117 117 1 0 80 117 20 10 61 107 6 4 37 83 52 24 45 7 7 23 32 9 2 2 21 39 24 81 0 0 0 1 46 81 3 0 9 11 3 1 102 117 10 5 93 44 34 2 5 12 7 48 24 22 75 3 0 2 9 45 1 0
0.088502258 -0.051365215 0.072999999 0 0 6 80 8 0 0 0 3 16 80 114 2 0 0 6 9 73 91 40 6 0 3 13 1 2 31 99 63 1 1 3 3 0 7 114 114 2 0 2 77 12 38 104 47 3 9 114 22 18 13 29 26 13 37 91 5 1 4 18 78 24 47 32 6 1 0 101 114 7 2 5 114 44 9 19 34 4 7 50 39 24 22 87 20 7 12 21 47 11 36 75 16 4 27 30 11 13 4 40 114 12 7 15 36 35 2 2 3 5 53 90 8 5 2 6 18 24 88 30 11 3 8 85 114 10 14 15 1 0
0.076936126 -0.047482863 0.072999999 7 68 34 35 36 10 3 2 58 58 9 6 17 11 35 83 63 6 0 0 0 0 22 125 9 0 0 0 0 0 0 9 32 76 26 21 140 63 0 1 140 125 10 0 2 1 0 24 130 10 0 0 0 0 0 22 1 0 0 0 0 0 0 1 48 4 0 39 140 33 2 40 140 31 0 1 5 1 1 140 115 6 0 0 0 0 0 28 1 0 0 0 0 0 0 0 39 1 2 19 73 31 77 108 80 0 0 0 0 0 20 140 13 0 0 0 0 0 0 29 0 0 1 3 0 0 0 0 1 0
0.088160217 -0.044431709 0.072999999 2 124 101 19 3 1 1 1 2 42 17 61 44 10 1 0 48 26 5 14 11 14 22 15 14 9 2 3 52 72 33 7 34 124 24 10 22 41 20 7 124 124 5 3 16 34 17 17 44 33 6 12 23 51 27 8 13 31 15 19 46 12 5 5 35 7 2 47 33 15 5 124 124 17 0 9 28 10 7 124 13 26 26 79 124 23 3 6 16 106 33 11 7 2 2 6 41 0 1 8 0 0 0 124 10 1 0 1 31 25 8 109 1 5 3 9 124 85 1 1 68 49 8 2 29 16 0 3 1 0
0.083506681 -0.044691849 0.072999999 0 0 2 67 121 0 0 0 22 1 11 110 102 0 0 12 124 4 2 15 3 0 0 119 33 1 0 0 6 5 6 46 0 0 2 62 124 30 0 0 56 8 0 25 108 83 4 10 124 25 2 1 1 5 3 36 42 9 18 45 7 2 0 5 10 8 47 52 40 23 2 5 20 2 1 3 26 121 27 40 115 10 8 39 20 11 16 111 14 5 67 124 23 0 0 4 87 18 14 12 9 5 5 25 16 16 4 8 55 29 9 16 24 53 12 32 75 14 2 15 16 8 9 74 124 48 1 5 1 0
0.07829152 -0.032029465 0.072999999 0 0 1 7 108 100 5 1 25 4 3 4 26 46 30 69 79 2 2 7 1 0 3 110 8 1 4 23 1 0 0 7 7 10 13 100 130 10 0 1 130 45 19 37 23 5 7 56 47 1 0 6 22 4 2 54 8 2 2 22 17 1 0 2 15 5 4 43 130 69 11 18 130 20 5 11 23 18 12 85 55 4 0 2 28 11 2 9 1 1 2 46 78 8 0 0 6 25 35 130 116 26 4 4 130 130 30 21 6 6 4 29 43 15 0 0 3 24 17 14 0 0 0 14 130 38 6 0 1 0
0.023506645 -0.03067557 0.072999999 3 3 26 126 23 0 0 0 125 51 47 38 0 1 1 14 65 37 21 2 2 30 30 20 55 58 7 0 0 6 38 53 25 2 3 70 82 6 0 7 126 26 3 4 0 0 6 124 81 30 13 11 2 4 37 71 98 29 2 0 0 0 12 49 22 2 0 1 57 115 25 8 126 95 8 3 0 6 13 32 50 71 49 36 1 2 4 7 65 126 31 3 0 0 0 8 1 0 0 0 10 126 36 3 42 31 6 1 7 66 54 20 25 28 38 27 0 1 37 51 60 18 16 7 0 0 8 126 1 0
0.088915735 -0.029537996 0.072999999 90 24 1 5 66 9 2 7 92 67 0 2 106 28 1 1 145 143 6 0 3 0 0 0 8 16 12 2 5 4 0 0 112 17 0 1 63 20 3 34 81 21 0 1 145 70 4 11 145 62 0 0 13 8 1 11 39 9 0 0 2 2 1 3 106 38 1 0 61 43 2 6 66 17 4 12 70 95 8 16 145 5 0 3 10 22 7 52 43 1 0 1 5 2 1 8 25 22 4 1 74 72 2 4 42 30 20 31 27 4 1 4 145 24 2 7 9 1 0 8 31 6 1 1 2 1 2 12 1 0
0.056892384 -0.02953482 0.072999999 106 35 7 14 30 5 1 16 118 11 0 2 27 19 2 21 5 1 1 15 67 73 38 5 113 9 2 4 3 8 26 29 118 23 1 5 40 34 15 38 118 19 1 9 20 9 1 23 9 5 23 63 78 43 15 3 96 30 20 12 6 7 14 43 63 1 0 2 28 80 38 56 118 11 2 35 45 5 3 40 9 17 66 118 118 29 9 8 118 118 52 16 3 4 7 31 13 16 36 33 7 30 21 21 52 25 5 13 57 11 4 22 11 4 2 41 118 51 12 15 108 16 1 2 2 4 8 63 1 0
0.056892384 -0.02953482 0.072999999 71 110 8 0 7 12 3 2 16 48 6 4 27 55 18 5 6 17 51 37 66 39 7 9 3 117 103 12 11 4 0 0 34 77 33 26 43 35 7 13 117 117 19 4 11 27 5 25 15 6 2 4 80 117 5 2 7 40 29 12 53 117 12 1 14 4 2 9 39 117 102 48 112 54 18 7 8 9 28 88 24 57 32 4 23 94 1 2 1 5 4 1 56 117 13 1 0 1 1 2 43 94 23 2 15 11 21 28 41 65 8 9 23 67 75 28 5 6 1 2 17 54 6 0 12 66 5 0 1 0
0.088654861 -0.016806217 0.072999999 15 123 7 1 5 5 1 0 9 123 19 4 1 0 0 1 5 15 51 31 6 3 0 1 4 18 17 4 85 65 0 0 17 101 12 17 29 16 0 8 123 123 15 6 6 4 0 23 31 23 27 26 22 33 15 16 30 18 8 21 65 11 6 30 18 4 3 25 15 12 23 113 114 24 58 46 2 1 1 112 15 68 123 19 1 11 9 8 3 18 113 123 28 1 4 13 1 0 20 64 4 22 43 50 1 0 31 123 6 0 1 18 0 18 123 53 8 7 4 0 0 7 100 94 13 11 7 5 1 0
0.085040502 -0.016115276 0.072999999 6 20 8 1 2 68 69 7 31 4 6 2 0 11 86 130 46 5 1 0 0 0 5 93 2 0 0 3 2 1 12 9 130 67 7 1 1 4 18 12 39 10 11 28 16 11 43 35 48 55 13 8 2 2 5 18 8 7 10 24 8 1 3 2 130 96 9 1 1 1 1 6 40 46 35 8 11 35 26 10 28 9 52 63 1 7 22 33 6 2 106 130 1 0 0 2 18 130 62 3 2 14 22 1 3 121 130 15 0 4 10 1 0 2 130 130 1 2 9 1 0 0 73 130 1 0 19 11 1 0
0.085040502 -0.016115276 0.072999999 74 52 1 0 2 5 1 18 30 8 1 1 8 89 71 26 3 4 3 1 1 23 113 113 0 0 0 0 0 1 47 89 137 10 1 0 1 1 1 116 36 5 14 23 17 17 21 53 49 23 14 7 2 6 26 32 13 2 2 2 1 6 13 13 137 137 7 0 1 3 1 21 17 67 39 4 15 38 17 11 33 9 55 7 1 8 19 43 9 4 62 15 2 1 0 3 19 134 33 1 1 79 23 1 1 126 137 2 1 10 3 0 1 14 137 45 0 1 2 2 0 21 137 17 0 0 0 0 1 0
0.10979925 -0.012513241 0.072999999 14 44 37 15 31 41 5 3 72 100 6 3 4 12 18 23 28 126 72 1 0 3 9 2 0 41 49 1 0 0 0 0 32 65 73 13 2 14 52 24 126 49 17 4 7 24 57 59 19 50 40 10 98 76 44 15 0 15 29 6 16 2 0 0 61 2 1 0 6 76 126 106 126 72 23 11 47 80 76 42 35 58 22 8 126 75 6 3 0 0 0 1 15 16 2 0 32 0 0 26 47 38 68 69 31 32 15 64 126 32 8 32 70 55 13 6 10 8 4 34 1 1 0 0 0 2 1 0 1 0
0.0057263337 -0.0039200857 0.072999999 0 2 55 34 5 0 0 0 0 6 80 93 53 30 8 0 35 30 41 13 12 27 41 43 23 6 0 0 0 0 3 29 7 17 75 63 76 30 9 5 31 55 112 135 135 30 8 10 135 135 68 28 10 5 4 43 49 4 0 0 0 0 1 22 4 2 1 3 42 112 63 8 24 7 2 16 131 135 102 50 135 14 1 3 8 28 61 135 47 0 0 0 0 0 0 17 0 0 0 0 1 8 5 0 0 0 0 0 2 20 10 3 7 0 0 0 0 2 7 17 2 0 0 0 0 0 0 1 1 0
0.060172077 -0.04189609 0.072999999 48 17 10 13 10 4 3 11 22 5 1 48 135 11 1 7 134 6 1 11 32 8 4 89 106 9 0 0 0 0 0 58 99 34 10 7 18 2 1 15 45 8 1 23 135 14 1 7 135 23 1 6 28 3 1 67 91 1 0 0 0 0 0 51 59 8 3 3 18 22 78 82 22 1 0 8 135 78 10 19 135 8 0 1 17 24 10 54 109 1 0 0 0 0 0 7 0 0 0 1 14 77 39 4 2 0 0 9 58 82 76 17 91 0 0 1 5 7 58 118 42 0 0 0 0 0 0 20 1 0
0.064424746 -0.040468149 0.072999999 26 6 7 44 96 16 2 12 129 59 15 21 31 10 4 41 101 34 0 0 8 12 0 20 4 3 2 7 129 71 1 2 40 12 1 23 129 13 0 4 129 20 1 7 41 4 1 84 101 2 0 0 5 2 0 56 1 0 1 25 129 50 1 1 39 6 0 2 126 52 8 18 129 31 1 2 36 28 8 28 116 8 0 0 3 1 0 6 0 0 0 6 129 68 0 0 2 0 0 4 48 72 42 11 103 0 0 1 12 17 55 94 60 0 0 0 0 0 1 21 0 0 0 0 15 38 1 0 1 0
0.096448392 -0.028460339 0.072999999 2 0 3 55 121 6 10 9 60 19 8 3 18 21 16 7 151 28 1 0 1 7 15 21 21 3 1 10 11 51 62 12 49 32 10 72 69 3 4 9 78 23 2 20 103 16 5 6 151 66 2 4 8 0 0 5 40 16 4 26 60 4 1 1 120 18 3 33 72 2 0 8 112 9 4 64 99 0 0 13 151 7 1 4 7 0 0 53 37 4 1 14 64 2 0 3 65 5 1 9 72 6 0 16 107 2 2 34 63 1 1 59 151 3 0 1 0 0 0 87 13 3 1 14 60 1 0 1 1 0
0.09232986 -0.026626937 0.072999999 3 0 0 12 127 8 1 2 71 2 0 6 79 10 2 31 93 18 0 2 87 17 1 9 127 37 1 0 1 0 0 8 5 0 0 0 127 54 1 1 108 11 1 1 79 33 2 13 94 3 1 4 65 59 9 45 127 1 0 0 1 2 2 65 2 1 3 3 127 88 2 2 36 28 8 6 94 50 1 3 125 17 15 22 10 8 2 21 127 1 0 0 0 0 1 38 0 22 69 19 80 21 0 0 1 5 13 6 74 62 35 3 80 6 8 4 1 4 41 81 96 19 6 1 1 0 1 31 1 0
0.060211569 -0.016964046 0.072999999 0 0 19 20 1 0 0 0 0 2 69 70 5 0 0 0 17 56 90 15 0 0 0 0 13 19 2 8 1 0 0 0 23 46 112 31 11 0 0 0 13 18 45 123 127 8 0 1 127 81 48 30 16 3 0 5 79 12 1 86 45 0 0 2 127 36 15 8 23 0 0 0 39 10 2 13 127 45 4 8 127 8 1 4 28 21 7 42 76 2 0 56 127 6 0 2 127 12 1 4 13 3 1 9 30 1 0 2 66 52 8 10 127 0 0 0 11 16 9 43 44 0 0 1 127 49 0 6 1 0
0.0039030532 -0.016051887 0.072999999 0 0 0 2 1 0 0 0 4 12 24 69 111 54 27 7 87 42 16 11 29 45 125 145 38 4 0 0 0 0 66 97 0 0 1 3 0 0 0 0 42 34 41 145 57 22 19 14 145 109 27 29 8 4 13 56 54 3 0 0 0 0 7 10 0 0 0 0 0 1 2 0 17 2 0 12 24 82 145 52 145 5 0 2 3 12 141 145 28 0 0 9 2 0 0 11 0 0 0 0 0 0 0 0 0 0 0 0 0 4 47 3 1 0 0 0 0 1 32 19 0 0 0 53 70 6 0 2 1 0
0.091161333 -0.012523944 0.072999999 16 33 23 5 14 13 3 2 55 129 8 13 13 6 0 1 6 23 4 26 41 59 20 4 9 8 9 2 1 8 24 86 6 2 0 0 36 83 11 4 52 96 5 3 4 6 2 4 122 58 1 1 2 28 49 35 21 7 2 2 1 7 65 94 1 0 0 2 63 130 6 3 62 47 9 19 43 50 1 2 130 130 16 1 2 5 2 25 24 25 51 13 3 10 10 13 0 0 0 0 10 130 21 2 5 26 4 3 21 130 85 0 17 130 63 1 1 79 83 2 1 33 130 44 1 17 30 1 1 0
0.085577041 -0.012120392 0.072999999 0 0 2 38 124 4 2 0 11 4 10 33 33 0 2 20 57 2 1 3 9 5 10 65 12 2 14 19 34 17 6 8 5 1 1 14 124 49 0 1 124 9 5 12 54 14 9 93 32 4 2 3 9 18 41 114 4 1 1 1 13 64 74 11 2 0 0 0 124 106 0 1 119 118 6 1 91 68 1 11 38 124 21 2 7 7 9 17 7 16 9 1 1 6 20 24 0 0 0 0 54 68 0 0 2 51 11 2 91 124 1 0 2 124 68 1 5 44 4 1 2 124 54 1 0 0 0 1 1 0
0.086179823 -0.0075236205 0.072999999 1 2 7 9 21 147 4 0 83 50 0 0 54 147 6 2 147 98 0 0 3 6 1 1 15 4 0 0 0 0 0 0 11 14 33 33 21 14 3 5 67 10 10 81 147 60 1 3 147 38 1 7 20 5 0 5 37 3 0 0 0 0 0 0 9 10 69 102 17 1 1 2 55 2 28 116 57 6 15 42 147 5 0 4 6 1 3 88 33 0 0 0 0 0 0 4 5 2 5 46 20 1 2 6 51 1 1 3 2 2 14 98 131 5 4 0 0 0 2 99 8 1 0 0 0 0 0 2 1 0
0.1031727 -0.0034458579 0.072999999 3 1 0 0 32 121 16 2 10 10 17 46 106 75 6 2 4 14 41 37 47 72 19 2 15 87 38 15 13 24 7 3 0 0 0 1 91 86 10 5 31 11 2 17 145 107 1 2 133 17 1 4 37 122 58 39 9 6 0 0 36 145 46 8 0 0 0 2 21 6 0 0 34 2 0 21 143 17 0 3 145 9 0 3 22 50 20 58 32 0 0 0 34 145 83 23 0 0 0 0 0 0 0 0 1 0 0 0 0 0 0 1 31 0 0 0 0 1 3 19 9 0 0 0 0 80 52 14 1 0
0.1031727 -0.0034458579 0.072999999 2 147 53 14 6 0 0 0 0 6 7 33 34 0 0 0 0 0 0 1 2 0 0 0 0 0 0 0 0 0 0 0 64 147 43 19 18 0 0 0 27 64 22 91 147 1 0 3 121 5 0 8 38 1 0 31 16 2 0 0 0 0 0 3 46 147 35 9 10 7 0 1 48 113 44 45 119 10 2 6 147 66 1 2 29 7 2 27 89 51 7 4 0 0 0 3 17 21 3 2 17 76 57 18 52 57 12 2 4 18 38 48 132 83 4 3 9 9 14 38 39 99 9 1 0 0 0 0 1 0
0.10887306 -0.047413219 0.072999999 0 0 0 0 17 149 36 0 3 0 0 0 8 53 21 6 6 0 0 0 0 0 0 2 0 0 0 0 0 0 0 0 0 2 1 0 23 149 40 0 50 2 0 0 112 149 20 8 149 7 0 0 10 11 1 27 16 0 0 0 1 7 1 3 15 34 1 1 64 31 1 1 38 1 0 5 149 89 1 13 149 6 0 0 25 21 5 62 53 0 0 0 2 76 18 17 77 26 4 3 37 21 1 14 22 1 2 8 149 69 7 27 149 0 0 0 10 9 5 118 38 0 0 0 0 19 6 17 1 0
0.064588197 -0.040408019 0.072999999 27 14 9 46 63 7 0 5 133 95 9 12 10 3 0 9 61 22 0 0 36 59 2 4 13 11 1 3 127 89 2 1 27 11 0 7 123 12 0 5 133 19 0 1 23 5 0 48 107 4 0 0 32 15 1 27 2 4 6 16 133 78 1 0 33 10 0 0 79 51 7 13 133 41 0 0 22 20 6 17 120 16 0 0 14 6 0 4 0 0 1 2 133 133 1 0 4 0 0 0 21 82 46 17 97 3 0 0 7 27 45 89 75 3 0 0 1 1 1 26 1 0 0 0 10 58 4 0 1 0
0.015943451 -0.030741263 0.072999999 28 57 125 95 1 0 0 10 47 125 105 0 0 0 1 21 52 82 7 0 0 0 0 5 2 1 0 0 0 0 0 0 125 23 18 33 15 8 3 111 125 48 3 0 0 0 3 125 112 20 0 0 0 0 0 83 5 0 0 0 0 0 0 1 96 32 0 0 7 71 68 53 125 74 0 0 0 0 18 111 94 7 0 0 0 0 0 36 1 0 0 0 0 0 0 1 3 1 0 0 1 62 125 37 25 1 0 0 0 0 82 125 14 0 1 1 0 0 1 28 0 1 5 1 0 0 0 0 1 0
0.015943451 -0.030741263 0.072999999 1 14 123 46 0 0 0 0 16 94 94 2 0 0 0 0 11 26 2 0 0 0 0 0 0 0 0 0 0 0 0 0 106 69 123 78 7 0 0 9 123 106 37 0 0 0 0 41 88 37 0 0 0 0 0 6 1 1 0 0 0 0 0 0 123 74 6 11 18 24 13 12 123 123 22 0 0 0 0 23 123 96 0 0 0 0 0 15 5 2 0 1 0 0 0 0 23 17 1 0 2 114 123 29 69 34 5 0 0 2 77 123 80 8 0 0 0 0 2 92 2 0 0 4 6 1 0 1 1 0
0.056477815 -0.027904579 0.072999999 12 7 20 44 120 1 0 4 78 58 34 23 53 7 0 0 81 13 3 11 81 47 3 19 120 11 1 15 100 17 1 12 15 13 3 9 120 28 1 2 120 24 3 6 59 21 4 12 80 9 4 16 32 63 10 25 120 12 1 1 36 47 3 24 31 5 1 5 106 99 8 6 109 5 2 12 46 59 21 48 63 38 17 78 77 9 0 8 120 76 6 4 4 10 1 9 28 5 2 31 72 11 1 1 26 24 5 25 50 10 4 7 55 9 0 9 112 10 0 11 120 10 0 0 3 1 0 36 1 0
0.10899983 -0.025009571 0.072999999 7 1 0 0 0 0 0 4 146 25 0 0 0 0 0 34 146 30 0 0 3 1 0 6 25 1 0 7 146 10 0 3 5 0 0 0 0 0 4 4 146 36 0 0 0 0 25 39 146 68 0 0 2 1 2 28 48 4 0 0 146 56 1 5 0 0 0 0 0 2 12 1 51 3 0 0 3 16 107 78 146 30 29 4 0 1 9 116 34 24 75 21 86 30 1 6 0 1 0 0 1 2 1 0 23 10 4 3 12 26 13 9 39 27 87 71 9 2 2 9 1 31 146 56 8 1 0 0 1 0
0.078240067 -0.050711777 0.072999999 5 67 23 5 18 58 34 7 130 140 11 0 0 12 11 16 78 33 0 0 0 0 0 3 0 0 0 0 0 0 0 0 56 46 29 19 19 21 13 23 140 54 11 6 4 12 12 95 140 9 0 0 0 0 0 43 1 0 0 0 0 0 0 1 55 14 7 12 125 74 17 90 140 75 7 6 37 18 4 71 140 8 2 2 0 0 0 18 0 3 9 2 0 0 0 0 18 0 0 26 84 29 13 64 114 0 1 3 15 14 16 140 38 1 15 75 2 0 0 31 8 35 64 39 0 0 0 0 1 0
0.096809417 -0.046896905 0.072999999 0 0 0 45 12 0 0 0 2 1 18 125 15 0 2 8 13 27 60 38 3 1 3 24 1 23 91 23 7 6 15 4 4 6 7 125 81 0 0 0 88 20 11 114 27 3 14 37 17 7 29 50 50 12 17 28 9 85 49 18 8 8 34 16 36 15 7 125 125 0 0 2 125 24 4 32 28 4 1 20 28 6 10 46 125 73 1 3 4 100 34 11 22 26 3 3 31 27 3 66 63 0 0 0 125 125 2 6 5 2 0 3 17 59 0 0 33 115 1 1 3 3 0 0 12 125 16 5 1 0
0.084090196 -0.038712762 0.072999999 5 6 35 34 7 15 32 73 11 26 26 15 9 14 33 10 80 126 18 7 4 3 6 5 33 70 0 0 0 0 0 0 16 20 60 126 54 1 2 8 126 73 37 17 10 31 12 16 66 94 16 8 17 126 22 16 126 94 1 1 2 4 3 13 28 2 0 37 98 11 9 9 126 16 0 1 3 12 6 42 87 5 0 2 50 88 15 22 126 9 0 5 10 8 5 26 32 2 1 3 64 12 7 33 126 1 0 2 6 2 3 116 32 13 9 42 53 1 0 10 76 69 9 10 12 1 0 1 1 0
0.10193943 -0.023120342 0.072999999 73 5 4 1 0 0 0 8 132 11 3 7 37 2 0 56 33 16 13 65 132 9 1 13 132 43 8 6 5 12 12 11 59 3 0 0 0 0 6 20 132 30 5 3 41 12 5 36 51 5 5 11 132 69 3 14 132 8 0 7 14 6 2 46 6 0 0 1 1 1 11 17 75 25 81 46 18 6 12 36 28 36 124 60 60 17 10 9 105 68 40 47 14 3 4 22 0 0 0 1 2 15 13 0 3 0 10 19 33 101 33 6 11 19 27 7 5 21 132 33 4 42 31 12 2 5 132 63 1 0
0.10193943 -0.023120342 0.072999999 3 7 102 37 16 61 42 41 1 43 128 18 11 54 26 3 46 81 40 14 4 2 16 16 15 50 13 0 0 0 0 2 11 2 1 70 116 34 19 49 76 9 5 23 33 49 109 42 19 9 14 36 48 31 113 39 4 5 14 10 3 1 2 4 20 7 3 85 128 1 0 4 128 21 3 21 49 3 5 27 28 2 13 104 128 7 6 4 0 0 14 25 21 0 0 0 13 8 5 11 107 31 23 30 105 1 3 46 41 4 13 92 9 0 1 109 128 3 2 3 0 0 0 10 20 1 0 0 1 0
0.068830371 -0.038308762 0.072999999 54 91 33 4 0 0 3 5 116 116 1 1 0 0 1 1 15 17 24 13 0 0 0 0 0 13 18 2 0 0 0 0 116 39 14 8 1 3 29 83 116 72 3 14 5 2 23 54 36 34 59 115 27 0 0 2 6 103 66 12 0 0 0 0 114 17 32 36 1 1 9 116 116 96 28 33 20 1 7 28 19 14 10 78 80 4 1 6 58 41 10 4 1 0 0 22 40 33 83 116 0 2 31 66 116 86 32 29 6 7 18 94 16 10 5 35 26 9 19 9 59 9 1 4 5 3 5 30 1 0
0.068830371 -0.038308762 0.072999999 14 6 40 52 17 3 1 5 19 8 17 32 85 105 34 18 43 0 0 12 67 89 69 125 19 12 0 13 125 27 5 23 17 9 2 3 41 41 6 5 116 35 1 1 12 53 19 14 18 1 9 25 120 121 30 17 7 2 11 33 125 80 13 9 3 0 0 0 36 53 64 6 121 4 0 0 8 17 57 67 33 0 3 8 78 125 19 21 0 0 5 14 27 125 50 5 3 0 0 0 0 15 63 22 7 0 0 0 0 5 74 43 4 0 0 0 1 61 11 17 0 0 0 0 2 125 28 0 1 0
0.10348689 -0.037481155 0.072999999 0 2 17 7 0 0 0 0 15 16 136 108 0 0 0 8 20 21 131 56 0 0 1 17 7 136 36 4 0 0 1 1 6 5 13 5 0 0 0 0 136 38 75 32 6 1 0 53 83 24 35 81 85 4 1 51 102 78 27 17 6 1 9 21 9 0 0 0 0 0 0 1 136 28 1 1 10 3 1 25 121 18 4 18 136 61 0 12 136 22 2 13 23 14 1 28 1 0 0 0 0 0 0 1 83 14 18 10 5 5 6 43 44 25 79 68 44 18 5 7 80 59 30 36 14 5 5 15 1 0
0.083335511 -0.019279201 0.072999999 0 0 0 4 8 0 0 0 0 0 1 85 37 3 12 1 26 12 22 65 11 3 22 56 25 10 8 4 23 47 15 49 1 1 0 51 121 1 0 0 71 9 1 77 121 23 61 46 32 29 7 6 32 107 77 52 22 119 25 0 16 70 6 23 2 1 8 53 121 57 7 1 121 18 1 12 96 79 54 55 57 8 3 1 60 121 11 16 29 74 12 1 26 121 22 10 10 10 10 34 23 25 12 3 21 19 2 0 6 46 120 33 11 2 0 14 26 98 40 11 5 0 0 13 20 75 58 12 1 0
0.083335511 -0.019279201 0.072999999 47 14 9 35 94 15 0 13 125 57 11 11 14 4 6 20 86 57 14 10 4 0 8 21 12 38 12 8 52 11 0 0 69 16 15 21 101 54 0 7 125 27 8 22 29 21 0 27 77 64 54 125 41 0 0 11 78 98 33 19 11 4 9 27 16 18 83 72 22 14 17 8 56 114 65 38 10 2 30 36 49 22 31 113 38 1 31 125 93 8 2 4 1 3 36 125 0 1 3 6 7 37 36 18 3 9 4 0 0 0 62 58 4 1 2 0 0 0 19 125 5 0 0 0 0 0 4 48 1 0
0.026553383 -0.031111354 0.072999999 2 28 50 9 0 0 0 0 5 32 58 16 0 0 0 0 1 34 61 4 0 0 0 0 1 8 1 0 0 0 0 0 36 56 26 16 15 2 0 0 14 44 133 133 110 31 5 4 133 133 133 42 10 6 6 20 61 33 1 0 0 0 0 2 51 12 1 4 16 13 21 42 20 6 7 33 112 133 133 41 133 29 7 7 11 48 133 133 61 6 5 5 2 0 1 24 5 0 0 0 0 6 57 37 10 0 0 0 0 19 59 36 1 0 0 5 10 7 65 33 1 0 1 13 11 0 1 4 1 0
0.080220081 -0.0050572651 0 25 4 1 5 24 24 10 13 12 8 20 35 27 29 33 10 106 92 23 9 5 6 37 46 102 43 1 0 0 0 0 15 27 7 4 5 21 10 12 39 62 11 4 2 18 41 128 100 107 9 1 3 72 65 128 65 128 13 0 0 2 1 1 21 19 20 21 9 6 2 7 15 128 39 12 2 40 10 9 38 104 10 1 4 128 46 10 27 107 13 0 0 5 2 2 31 18 21 5 6 6 4 20 35 128 19 1 0 30 3 12 64 88 11 2 5 128 14 1 9 104 11 1 1 5 1 1 8 1 0
0.080220081 -0.0050572651 0 1 0 1 14 88 3 0 0 128 8 2 14 93 8 2 17 51 2 11 71 128 9 0 3 5 3 23 38 32 25 4 6 4 1 2 34 104 9 0 1 128 31 11 35 99 6 1 13 52 7 10 51 128 22 10 3 5 2 10 17 23 21 19 8 2 1 2 39 128 7 0 0 71 69 128 68 93 6 1 6 18 42 128 97 64 10 4 2 18 8 12 42 22 8 5 6 0 0 0 24 119 52 1 0 7 9 41 47 86 84 23 13 27 31 30 11 12 5 19 31 29 23 9 14 21 3 1 6 1 0
0.093475737 -0.019021438 0 0 7 143 6 0 0 20 3 5 59 100 6 37 10 14 1 1 6 6 24 143 41 11 0 2 4 22 9 8 12 42 10 21 27 143 6 0 0 11 13 143 140 92 4 17 2 1 17 44 15 12 33 121 31 8 3 1 5 47 17 7 10 40 11 33 1 3 1 0 1 57 36 143 6 0 2 20 1 6 57 57 2 10 38 143 11 2 5 8 3 40 14 15 3 9 16 16 6 8 6 0 3 38 14 143 19 1 0 14 2 5 37 39 2 0 4 142 30 4 5 4 1 6 11 14 8 11 6 1 0
0.016486976 -0.021276491 0 9 4 7 98 150 9 0 2 51 23 26 69 28 26 20 17 155 33 5 4 2 6 8 35 27 7 0 4 11 4 1 6 8 3 0 8 155 28 2 3 78 41 22 6 55 24 11 13 155 28 6 2 6 4 4 21 40 3 0 2 15 4 0 6 6 1 1 21 155 20 2 2 80 12 4 19 50 32 13 14 155 16 1 4 5 5 3 12 38 2 0 3 15 4 0 6 3 0 0 8 155 36 2 1 52 10 2 22 62 20 6 13 155 60 34 4 3 2 1 14 14 30 51 14 3 2 0 3 1 0
0.11161913 -0.024399417 0 81 15 1 0 0 0 38 111 139 71 0 1 4 3 11 97 42 8 0 2 38 19 1 11 0 0 0 0 1 0 0 0 139 65 9 0 0 0 3 43 139 35 1 0 3 4 2 67 62 3 0 0 43 45 0 15 0 0 0 0 1 3 0 0 139 74 18 2 0 1 10 57 139 77 7 4 1 3 8 78 94 14 0 0 13 36 4 20 0 0 0 0 1 4 0 0 139 139 17 0 0 0 3 9 139 73 0 0 0 1 6 92 47 7 0 0 24 5 1 23 0 0 0 0 5 1 0 0 1 0
0.02402314 -0.029974014 0 54 58 35 2 1 1 0 17 23 19 33 12 12 1 0 11 26 3 0 19 54 1 0 14 6 2 0 29 108 7 1 9 46 116 92 19 6 3 0 6 124 81 96 18 3 1 0 8 60 16 11 52 46 0 0 4 16 2 1 85 124 6 1 6 61 10 10 21 26 24 7 43 124 82 78 26 7 6 2 19 84 67 67 34 15 0 0 8 20 3 1 124 124 0 0 3 27 27 30 45 7 2 4 10 75 25 16 55 13 2 1 20 124 17 5 16 40 0 0 45 10 1 2 109 124 2 2 7 1 0
0.011647468 -0.034395602 0 6 1 11 22 113 49 4 1 152 27 7 7 7 8 1 21 152 10 0 0 2 9 2 21 34 0 0 0 25 4 1 11 11 5 23 72 62 21 2 9 152 27 1 1 10 14 3 104 152 12 0 0 5 2 1 38 43 2 0 2 37 1 0 2 14 6 10 24 10 29 59 28 152 83 2 2 6 11 12 55 152 55 3 0 3 2 0 12 29 13 4 15 32 0 0 3 22 18 10 44 28 27 30 12 152 43 3 0 2 9 18 91 80 57 40 0 0 0 0 12 2 24 38 41 8 0 0 0 1 0
0.090588443 -0.046537399 0 20 11 20 17 11 13 22 10 24 22 26 72 32 13 27 8 143 45 4 7 2 2 22 44 44 3 15 3 0 16 92 24 20 18 28 13 9 9 12 15 34 20 30 79 69 26 38 14 143 57 16 23 17 3 7 20 59 7 118 93 57 7 1 2 13 12 25 18 8 12 16 11 33 6 20 45 38 34 56 32 143 15 1 13 41 14 23 60 43 2 27 99 143 20 3 2 4 16 33 7 2 22 50 10 13 25 26 7 2 9 85 33 133 26 10 7 34 12 28 72 18 2 7 37 143 81 23 6 1 0
0.057502527 -0.047070276 0 32 27 31 18 4 4 27 21 138 48 3 11 44 7 1 16 14 16 30 44 106 26 10 12 3 15 76 22 3 5 22 13 36 57 67 26 6 29 16 4 138 138 8 6 29 22 3 12 34 10 19 41 81 111 64 8 1 4 38 24 12 62 54 4 29 2 1 0 1 63 48 26 138 8 0 9 22 17 13 81 45 2 36 84 100 77 12 5 0 1 60 53 20 33 10 0 14 5 4 2 6 26 32 22 138 4 0 1 6 12 9 53 38 0 0 18 55 137 9 7 3 1 1 22 34 81 13 3 1 0
0.057425454 -0.05160699 0 22 45 28 3 0 2 9 13 134 62 8 11 17 2 1 16 26 16 96 89 93 23 8 3 4 32 134 9 3 4 23 10 28 20 12 7 2 7 75 50 134 17 1 3 34 6 5 76 31 5 7 18 134 47 19 22 3 11 20 3 4 9 77 38 28 52 82 32 5 7 7 2 134 107 9 12 35 6 1 7 28 18 28 70 134 49 22 6 4 27 90 18 5 20 28 7 27 18 17 5 3 49 21 11 134 50 2 5 13 12 5 41 36 3 18 43 55 70 32 6 0 1 29 22 11 45 32 2 1 0
0.10994978 -0.056214046 0 0 0 0 1 2 2 0 0 0 3 18 12 3 1 0 0 6 12 12 1 0 0 3 7 2 0 4 7 1 0 5 8 0 0 0 14 51 7 0 0 13 43 122 149 148 13 1 3 149 149 84 18 6 3 3 15 25 6 8 33 47 26 5 5 0 0 0 7 86 8 0 0 41 12 10 45 149 79 12 32 149 45 7 5 14 15 8 83 54 3 0 1 20 54 4 3 0 0 0 2 39 12 0 0 22 6 0 5 149 95 8 7 149 50 0 0 14 15 9 21 54 11 0 0 5 6 1 1 1 0
0.08385314 -0.0039946255 0 0 3 55 1 0 0 0 0 0 3 45 19 0 0 0 0 0 8 45 4 0 0 0 0 0 7 26 2 0 0 0 0 1 44 153 8 0 1 3 2 10 57 153 140 4 2 1 2 88 99 153 29 1 1 20 32 13 36 115 7 0 1 89 30 3 17 67 12 4 22 90 22 29 25 54 36 16 42 38 35 153 99 46 11 3 8 23 63 23 55 153 19 1 0 75 29 1 4 18 28 34 36 29 3 14 14 31 8 4 11 22 30 26 54 24 6 1 2 13 18 4 29 60 25 8 5 3 2 1 0
0.08385314 -0.0039946255 0 16 28 32 36 35 4 1 4 81 12 3 18 87 24 3 16 153 18 0 1 2 1 1 30 41 2 0 0 0 0 0 1 33 10 4 12 23 29 13 13 57 39 16 41 38 35 28 25 153 153 5 2 1 2 10 47 39 20 0 0 0 0 0 2 22 5 1 2 13 20 25 50 47 11 3 8 21 56 153 103 153 31 1 1 20 32 93 91 50 5 0 0 0 0 0 6 47 25 9 6 4 3 4 25 153 27 1 0 62 29 23 53 112 9 0 0 93 38 14 30 33 3 0 0 0 0 0 8 1 0
0.06398847 -0.0049521727 0 63 16 1 6 5 7 7 16 138 56 2 4 32 2 1 17 96 12 1 11 129 12 2 8 74 3 0 0 1 0 0 4 44 20 17 2 1 14 21 32 138 16 1 3 21 13 5 57 84 13 7 23 85 71 17 38 53 13 2 1 0 1 3 24 88 52 39 15 14 12 6 15 138 34 2 11 28 5 0 26 98 30 19 72 127 25 3 16 78 25 5 2 1 1 1 14 40 11 41 30 10 44 82 61 138 72 60 4 19 9 5 90 57 19 24 5 82 57 13 47 55 5 1 0 1 2 3 39 1 0
0.045181207 -0.0050709811 0 26 4 0 4 153 12 0 0 153 32 0 1 16 0 1 22 80 22 0 0 0 0 2 38 24 3 0 0 0 0 0 8 29 2 0 9 153 8 0 1 153 20 0 0 24 1 0 17 139 11 0 0 0 0 0 29 38 2 0 0 0 0 0 2 27 1 0 4 153 18 0 0 153 14 0 0 28 1 0 10 144 13 0 0 0 0 0 16 33 3 0 0 0 0 0 3 18 1 0 7 153 8 0 0 153 24 0 1 24 0 0 6 113 17 0 0 0 0 0 17 23 2 0 0 0 0 0 5 1 0
0.012289467 -0.0055377292 0 25 6 0 0 158 30 0 0 158 44 0 0 13 2 0 9 77 25 0 0 0 0 0 28 23 4 0 0 0 0 0 7 27 1 0 4 158 24 0 1 158 6 0 0 27 4 0 45 87 3 1 1 0 0 2 77 17 2 0 0 0 0 0 12 20 2 0 2 158 35 0 0 158 39 0 0 36 6 0 5 111 18 3 4 1 2 2 8 12 6 9 10 1 0 0 1 7 1 0 1 158 41 0 0 158 46 0 0 42 10 0 0 87 36 18 10 1 0 1 0 0 0 10 26 11 1 1 0 1 0
0.057186194 -0.0057865516 0 5 41 55 30 7 2 1 1 4 48 37 18 79 34 7 1 15 13 7 15 17 14 32 47 8 3 0 2 3 6 47 56 14 41 129 129 1 0 12 28 129 129 76 14 9 16 30 55 41 7 7 25 4 12 113 81 5 6 36 31 4 2 40 63 9 2 25 40 0 5 129 129 129 27 3 2 0 10 83 129 80 19 9 47 12 12 44 25 7 5 17 21 2 4 44 41 6 0 0 0 0 5 77 114 31 1 0 0 0 14 88 55 32 1 0 0 0 2 19 22 0 0 0 0 0 0 8 3 1 0
0.048591897 -0.012337976 0 39 2 0 6 165 6 0 0 165 18 0 0 11 0 0 5 80 9 1 1 1 2 4 18 6 3 1 8 15 10 2 8 49 1 0 14 165 10 0 1 165 8 0 1 13 1 0 21 103 9 2 1 1 0 4 22 5 3 1 6 21 7 1 6 49 1 0 14 165 27 0 2 165 23 0 0 15 2 0 8 95 32 8 2 1 0 1 8 4 7 3 7 18 5 2 2 21 0 0 14 108 76 35 16 165 2 0 0 7 7 26 85 67 5 2 2 1 0 12 25 11 2 0 0 5 9 8 8 1 0
0.096178547 -0.017242819 0 0 0 0 0 52 19 0 0 149 27 0 0 17 8 0 0 149 54 0 0 2 0 0 0 16 3 0 4 93 19 0 0 1 1 0 0 46 37 32 2 125 14 0 0 13 26 63 29 149 48 0 0 0 0 6 38 35 5 0 2 63 26 0 1 0 0 7 1 3 30 149 19 17 2 11 1 0 8 149 82 120 6 35 7 0 0 53 138 19 4 50 32 47 1 0 3 0 3 101 23 1 2 38 4 6 33 101 11 0 0 36 7 3 6 92 51 12 1 7 7 3 17 94 34 8 0 0 0 1 0
0.10869957 -0.019939851 0 3 9 25 7 2 1 1 3 125 24 6 0 0 0 1 34 141 1 0 0 0 1 1 64 27 0 0 0 3 10 2 19 17 47 74 1 1 1 2 2 141 60 8 0 0 0 0 40 141 3 0 0 0 1 1 120 24 0 0 0 1 6 4 21 21 14 8 0 0 37 141 14 141 32 0 0 0 7 110 97 141 10 0 0 3 0 2 74 9 0 0 1 6 1 0 6 0 3 28 4 2 52 141 2 27 7 11 13 18 40 141 64 73 27 4 3 4 1 5 47 2 2 2 2 4 0 0 1 1 0
0.060496826 -0.024465319 0 4 1 10 7 23 40 34 6 8 5 23 5 23 33 94 45 18 8 5 2 11 32 87 56 1 4 7 8 13 30 104 4 4 10 85 96 36 9 14 1 26 57 132 49 12 9 30 9 132 132 53 13 34 12 48 20 8 3 49 63 68 15 54 2 14 5 7 33 121 26 10 3 69 17 26 25 26 60 31 27 132 58 13 20 68 5 6 53 18 9 15 62 132 1 0 2 10 2 4 29 74 16 4 3 18 22 19 29 11 19 17 7 79 132 31 19 20 3 6 16 7 20 13 29 71 12 4 3 1 0
0.063299365 -0.027387019 0 31 56 10 21 13 3 4 8 13 28 17 45 52 51 10 3 2 10 37 37 24 57 24 21 46 28 17 8 2 1 6 20 20 11 7 9 11 32 12 15 137 27 6 5 24 77 49 36 18 10 14 18 137 137 53 22 38 38 30 7 9 3 9 35 11 5 2 4 18 24 17 15 137 21 0 1 44 21 20 43 62 17 8 15 137 137 38 12 36 33 19 7 27 26 91 73 3 5 25 15 1 2 89 48 65 13 84 14 5 4 48 65 28 15 86 39 54 97 44 10 4 9 61 39 7 20 103 37 1 0
0.063299365 -0.027387019 0 3 15 138 40 7 14 44 11 82 111 69 8 14 13 68 32 15 8 36 53 59 26 104 5 1 2 98 23 1 3 65 13 18 11 60 43 48 44 22 9 138 90 33 14 46 15 9 47 66 16 25 79 138 2 0 3 17 17 40 21 10 5 1 2 6 6 18 40 32 29 21 5 138 138 40 23 17 10 12 28 27 64 33 59 138 17 5 5 20 36 9 11 11 5 6 8 2 3 14 22 32 17 22 10 42 67 19 12 2 10 27 48 33 26 5 7 29 42 18 34 12 9 7 13 27 26 8 29 1 0
0.058161702 -0.027363095 0 47 16 0 5 17 11 26 17 124 41 1 1 67 27 1 2 2 1 7 9 70 43 18 3 2 3 15 23 6 7 33 4 31 6 2 14 19 19 20 13 131 21 4 6 18 30 32 32 13 2 63 24 26 61 131 16 1 1 65 43 23 35 131 8 11 26 37 27 6 8 14 14 127 87 30 40 31 3 9 23 15 15 131 131 101 17 21 8 14 27 131 77 15 9 11 16 5 13 18 20 9 9 41 12 101 48 8 3 44 11 20 30 16 4 4 14 131 92 23 11 27 5 4 2 5 20 38 39 1 0
0.058161702 -0.027363095 0 0 0 2 20 48 44 28 4 32 16 5 11 15 13 41 65 12 10 13 19 20 16 9 10 4 13 20 11 11 8 9 3 3 48 121 17 6 38 48 4 52 78 38 3 6 40 121 44 8 4 12 23 28 120 121 6 3 11 23 6 5 46 121 2 41 37 85 28 28 32 10 25 121 86 29 28 38 6 9 95 23 11 68 121 83 21 24 6 2 27 121 5 1 15 48 1 52 22 16 10 7 25 11 30 121 64 16 62 53 2 3 72 16 10 15 101 92 1 1 6 14 9 19 5 5 5 3 5 1 0
0.036275405 -0.033587977 0 20 6 2 3 58 43 6 13 82 55 47 13 3 5 8 38 50 28 37 16 2 4 11 19 15 12 54 28 8 4 14 16 16 7 3 13 103 41 10 13 110 33 16 2 10 12 83 151 31 11 13 4 49 92 88 74 11 7 17 12 19 17 22 36 28 18 15 87 81 27 3 5 151 64 7 16 34 9 11 49 61 3 4 16 151 52 25 19 6 2 23 37 14 23 30 29 25 9 3 18 41 69 14 12 151 23 2 7 34 17 11 49 52 2 9 30 151 16 5 6 1 1 21 42 14 15 28 12 1 0
0.093783028 -0.035977568 0 38 36 52 7 0 0 1 1 131 131 8 0 46 17 0 0 25 12 2 2 113 62 4 4 8 10 11 11 7 4 6 5 21 24 66 7 0 0 79 52 131 95 8 0 20 9 15 90 58 9 1 4 131 63 1 9 7 5 13 7 17 8 9 9 9 5 7 2 0 1 95 55 131 49 4 1 10 3 18 74 75 19 2 10 131 69 16 4 0 3 16 17 20 25 55 1 1 1 73 14 0 0 40 24 103 84 56 9 1 1 17 33 86 51 6 27 104 25 3 5 3 3 33 42 39 8 8 3 1 0
0.093844146 -0.040527303 0 7 6 8 0 0 8 123 22 127 12 1 1 7 1 36 127 60 2 0 17 127 10 1 26 4 4 6 6 28 4 4 8 11 12 36 0 0 1 73 26 127 32 10 2 17 3 14 80 50 4 3 33 127 43 13 10 1 6 14 12 15 32 33 1 7 21 80 0 0 5 69 15 127 77 23 6 18 1 14 65 48 12 26 88 127 17 5 6 1 7 57 31 6 15 14 2 3 0 0 0 0 10 127 16 94 0 0 1 35 5 70 105 24 5 7 30 127 19 4 19 18 10 12 9 11 7 11 29 1 0
0.013881416 -0.043802381 0 37 14 14 10 5 26 20 33 19 4 6 9 11 57 68 33 4 27 13 5 32 128 92 11 12 128 31 1 15 22 12 2 30 37 68 31 16 9 6 10 128 57 24 18 13 11 14 44 33 9 4 37 128 76 26 18 10 11 3 7 89 25 21 57 12 27 6 9 97 85 15 4 125 128 16 13 8 11 6 9 28 57 23 97 121 24 2 3 66 24 8 13 26 22 18 55 1 7 1 0 24 128 48 1 40 24 5 2 4 75 89 25 16 24 50 18 24 33 7 4 30 22 19 6 6 10 11 19 1 0
0.013881416 -0.043802381 0 19 29 12 11 18 29 21 10 29 53 51 10 13 9 15 45 7 4 7 10 43 80 37 25 54 77 20 18 34 43 2 1 31 11 8 73 106 20 5 6 118 31 21 10 3 1 4 118 24 6 8 86 87 65 41 106 40 17 1 50 111 81 3 3 33 3 0 6 116 96 20 25 118 39 30 36 10 5 7 60 19 14 70 118 48 4 10 16 11 4 2 75 39 14 61 18 4 4 3 4 103 118 13 5 22 47 26 21 40 9 4 11 36 14 13 23 29 8 17 49 17 11 4 7 44 26 63 30 1 0
0.093864903 -0.044998322 0 29 11 8 29 17 12 6 3 136 35 6 6 1 1 6 18 37 9 82 37 1 2 44 14 0 0 136 11 0 0 20 13 32 14 10 44 38 14 10 8 136 50 7 21 26 2 3 15 30 8 90 136 120 0 0 0 0 5 136 33 6 0 0 0 15 2 3 6 5 9 55 40 136 5 0 6 45 10 19 82 20 1 11 76 136 62 12 4 0 3 76 26 14 16 60 2 8 29 34 0 0 1 19 15 109 47 12 2 27 7 6 28 15 4 3 32 136 62 11 2 0 0 38 25 15 16 52 1 1 0
0.093864903 -0.044998322 0 49 21 27 4 0 0 22 38 129 73 7 3 34 18 0 11 6 5 8 27 85 59 24 1 0 1 22 25 5 12 32 1 22 26 76 13 0 0 45 31 129 98 13 4 29 4 5 38 32 10 18 53 129 20 0 2 13 8 39 35 17 2 4 13 9 0 1 0 0 1 129 58 129 5 0 0 15 9 64 129 34 2 2 5 129 107 8 21 46 14 9 5 40 28 8 32 0 0 3 5 0 0 129 52 4 0 29 13 11 7 96 75 1 0 12 21 129 67 8 10 15 8 5 3 53 29 6 23 1 0
0.035019845 -0.053536329 0 0 0 1 47 127 12 10 3 24 17 9 40 15 21 55 8 32 29 12 22 43 15 19 7 10 8 1 9 44 9 3 12 11 8 3 17 111 43 19 16 78 17 2 2 11 48 143 69 9 2 2 6 78 143 85 14 18 9 0 6 29 67 9 10 29 16 9 53 125 37 7 8 143 33 6 8 48 15 12 41 36 0 0 22 143 60 7 7 10 1 3 15 58 28 7 26 13 6 10 49 52 75 17 12 143 41 10 9 42 12 11 38 30 3 0 16 143 24 0 2 8 5 15 26 42 6 2 10 1 0
0.035019845 -0.053536329 0 25 5 3 13 7 6 18 23 140 9 0 2 15 1 1 33 65 6 8 47 140 31 8 7 46 60 16 15 22 10 18 59 51 30 7 30 9 1 2 18 140 54 6 9 26 0 0 42 54 13 11 64 140 21 5 11 114 40 10 12 37 14 9 59 34 64 5 9 16 8 1 8 85 140 85 14 9 3 2 7 13 53 140 67 84 15 3 3 117 35 15 13 12 8 4 25 54 7 4 9 7 6 2 15 33 13 21 8 43 30 13 22 20 28 55 8 20 10 9 43 122 9 9 3 0 0 1 54 1 0
0.0094396053 -0.053478226 0 21 2 1 33 82 13 1 3 139 10 1 9 59 5 1 29 25 1 1 50 139 15 2 5 44 5 6 26 24 7 7 53 28 1 0 9 106 25 2 8 139 17 0 3 62 16 2 32 34 4 1 18 139 85 5 6 34 20 13 19 24 18 9 40 11 0 0 3 36 109 52 8 139 24 1 5 49 58 28 36 34 7 2 40 139 37 8 5 16 20 5 14 30 20 28 19 0 0 0 0 15 60 14 0 28 1 0 0 34 79 44 53 8 0 0 0 94 89 68 19 1 0 0 0 3 39 132 44 1 0
0.0094396053 -0.053478226 0 3 39 132 43 1 0 0 0 95 89 69 19 8 0 0 0 34 78 44 53 28 1 0 0 15 60 14 0 0 0 0 0 30 20 28 19 16 20 5 14 139 37 8 5 34 7 2 41 49 58 28 37 139 24 1 5 36 110 52 8 11 0 0 3 24 18 9 40 34 20 13 19 139 84 5 6 34 4 1 19 62 15 2 33 139 16 0 3 106 25 2 8 28 1 0 9 25 7 7 52 43 5 6 27 139 15 2 5 25 1 1 51 59 5 1 30 139 10 1 9 81 12 1 3 20 2 1 33 1 0
0.083371066 -0.053840362 0 23 11 15 9 13 17 9 30 30 5 5 11 28 21 15 48 138 8 6 11 22 9 5 102 138 1 0 0 0 0 0 67 43 25 23 6 2 2 9 22 54 19 29 80 22 14 9 32 138 32 8 19 10 7 3 100 104 12 0 0 0 0 0 37 30 44 19 19 9 7 15 16 40 38 16 37 39 42 22 11 138 138 3 9 19 10 2 23 103 63 0 0 0 0 0 8 13 31 11 9 4 60 138 12 21 35 11 22 37 45 60 18 138 13 1 8 19 5 16 119 84 3 0 0 0 0 0 28 1 0
0.094452821 -0.0039236592 0 26 1 1 36 167 20 1 2 29 3 2 13 34 47 9 11 167 2 0 1 2 6 2 53 18 0 0 0 0 0 0 6 19 2 5 65 167 33 0 3 56 17 10 69 60 10 0 2 167 28 4 8 2 1 0 17 27 1 0 0 0 0 0 2 2 5 69 134 90 2 0 0 92 5 5 39 102 3 0 7 167 4 1 3 4 0 0 28 25 0 0 0 0 0 0 2 6 9 30 22 11 6 3 1 76 11 5 14 39 11 3 15 167 27 0 0 1 1 1 28 15 2 0 0 0 0 0 1 1 0
0.053629648 -0.0087814769 0 0 0 0 7 142 7 0 0 69 6 0 3 152 23 0 0 152 24 0 0 14 1 0 4 29 5 1 2 11 3 0 5 0 0 0 28 132 23 1 0 60 3 0 16 152 75 12 10 152 36 0 0 22 9 8 41 39 16 2 1 7 6 3 13 1 2 1 15 33 71 25 0 10 2 1 10 69 152 133 28 87 18 16 6 9 26 73 152 15 17 14 6 2 5 11 34 8 7 2 15 17 7 3 3 10 7 2 18 85 25 12 4 10 29 23 15 36 13 10 7 24 33 14 7 8 1 1 1 1 0
0.0041243974 -0.0087835314 0 0 1 1 1 0 0 0 0 0 1 1 6 3 0 0 0 2 3 1 1 0 0 0 0 1 0 0 0 0 0 0 0 0 7 38 27 16 1 1 2 14 27 35 170 115 2 0 0 162 108 27 26 7 0 0 7 41 12 0 0 1 0 0 9 1 2 7 5 58 19 25 26 71 10 6 54 182 20 4 1 182 26 4 11 34 0 1 34 58 2 1 6 3 1 6 33 0 0 0 22 80 8 9 4 74 0 0 51 182 3 0 4 182 1 0 4 27 0 0 32 47 1 3 37 23 1 2 8 1 0
0.07366693 -0.029539464 0 13 12 13 45 77 25 13 6 134 134 28 32 20 10 12 51 26 43 21 70 100 17 4 10 46 45 16 13 4 3 18 20 21 20 43 69 43 34 16 9 134 67 19 12 15 30 20 84 48 10 11 35 128 98 25 45 20 25 31 63 37 12 21 35 30 15 9 13 46 37 13 21 134 42 21 48 10 12 9 65 38 25 42 134 74 10 2 4 31 31 36 31 14 9 18 28 56 46 23 44 24 11 2 7 124 44 10 43 26 2 0 17 28 12 21 72 32 2 3 5 21 24 25 28 12 5 9 7 1 0
0.015810173 -0.037019543 0 13 11 8 8 10 7 21 20 69 4 2 8 63 19 8 30 175 10 0 1 3 5 7 67 27 1 0 0 3 83 38 12 36 28 3 6 17 18 26 71 71 29 5 12 102 51 15 16 175 70 2 2 5 1 1 22 70 5 0 0 6 12 7 10 45 15 53 59 14 9 16 78 87 4 16 108 114 24 11 19 175 9 1 2 9 1 1 51 67 1 1 4 13 1 0 12 12 7 26 27 6 12 21 23 65 1 6 27 20 42 34 33 175 35 6 1 0 1 3 38 30 20 40 29 3 0 0 1 1 0
0.057626877 -0.041186158 0 10 11 29 18 9 16 27 13 133 62 10 6 15 11 14 58 40 5 7 43 90 51 1 7 0 5 22 42 27 30 20 1 12 18 26 0 1 9 75 42 133 18 6 6 16 19 30 133 37 2 2 59 133 104 10 22 4 6 16 21 33 47 54 12 28 51 84 0 0 4 40 15 133 88 19 27 32 2 6 25 37 16 7 133 133 20 5 6 33 28 8 15 16 30 18 10 11 2 2 1 3 20 97 19 133 24 1 3 29 6 20 25 25 7 2 10 115 40 7 3 6 7 15 26 7 7 9 3 1 0
0.026133789 -0.049563609 0 30 23 23 31 16 17 2 2 56 22 6 27 28 23 6 40 152 27 0 10 54 9 1 42 40 16 0 27 143 34 2 8 29 9 19 18 8 8 15 15 72 25 7 22 33 18 9 12 152 42 0 16 48 20 1 8 39 11 4 67 149 70 4 12 15 9 8 15 6 5 10 11 72 3 2 36 30 9 11 23 152 8 0 15 70 8 1 26 41 17 5 54 152 35 12 40 23 10 1 10 17 9 14 26 58 20 6 26 22 8 8 6 152 52 11 14 54 1 0 11 42 22 12 36 134 12 3 13 1 0
0.024187736 -0.05390944 0 40 9 2 29 23 11 6 45 148 11 0 11 44 1 0 60 48 12 0 43 148 8 1 12 48 18 0 2 5 1 0 21 59 30 6 10 19 14 3 9 148 43 0 6 42 21 1 10 45 13 2 38 148 110 6 10 41 23 1 4 6 9 3 10 63 5 1 26 27 6 5 13 148 13 0 19 52 6 0 17 42 10 5 101 148 36 9 31 26 13 3 9 5 2 6 44 49 3 2 11 9 7 7 14 148 6 0 8 52 3 0 18 41 26 8 39 148 22 6 21 31 30 2 2 1 1 4 26 1 0
0.020195778 -0.057019815 0 0 0 1 8 4 3 0 0 64 19 8 63 36 23 5 29 133 31 3 4 127 24 1 39 12 3 1 4 133 32 0 6 0 0 0 1 4 3 0 0 48 49 7 13 54 39 4 19 133 124 5 5 104 25 1 22 7 5 1 7 133 86 1 1 0 0 0 0 1 2 0 0 42 8 1 23 95 54 1 5 133 24 1 6 91 16 1 20 15 1 1 52 133 26 1 5 0 0 0 0 0 0 0 0 34 4 0 15 70 17 0 2 133 20 0 3 65 17 1 7 17 2 0 6 133 63 5 7 1 0
0.03443712 -0.0088256132 0 0 0 0 5 20 3 0 0 8 1 0 39 145 9 0 6 145 2 0 8 45 7 0 84 43 1 0 16 51 0 0 15 0 0 0 16 56 0 0 0 33 13 2 111 145 1 0 2 145 37 2 24 24 0 0 18 35 3 1 15 65 5 0 2 0 0 0 27 89 0 0 0 72 3 0 83 145 0 0 13 145 28 6 12 17 0 0 33 19 10 9 33 29 0 0 1 0 0 0 41 95 0 0 0 85 0 0 60 145 0 0 26 145 6 2 2 5 1 0 54 6 3 4 10 8 2 1 5 1 0
0.096083328 -0.013269675 0 22 40 136 59 9 1 0 0 136 106 53 10 43 29 2 4 20 3 0 4 108 85 5 6 100 5 0 0 2 7 3 10 51 15 10 18 38 41 61 19 136 61 3 4 44 14 20 58 37 6 2 13 136 44 1 3 105 32 3 5 13 3 1 3 5 5 31 9 3 23 136 33 101 22 65 41 12 4 56 102 14 4 40 102 105 6 0 2 119 29 2 8 24 0 0 0 5 12 39 15 6 3 2 1 13 20 30 20 16 5 1 3 1 0 16 26 14 7 13 4 58 14 1 2 3 1 19 24 1 0
0.034737848 -0.014379695 0 1 1 0 38 137 5 0 0 148 13 1 19 66 7 0 55 98 3 0 19 61 1 0 25 14 23 2 9 27 2 0 1 7 4 1 84 148 0 0 0 148 44 3 45 54 0 0 14 114 11 3 22 70 3 0 4 5 6 1 9 28 5 1 4 24 0 0 73 148 0 0 6 148 21 3 15 51 0 0 53 60 25 19 39 20 1 0 6 9 7 2 13 8 0 1 5 42 0 0 60 148 0 0 13 148 1 0 5 17 0 0 68 19 2 2 6 14 4 1 11 7 3 2 3 2 2 3 11 1 0
0.01008078 -0.014048369 0 1 3 6 28 35 1 0 0 67 29 6 15 14 0 0 1 25 2 0 2 7 0 0 4 0 1 0 6 9 1 2 1 9 4 5 27 164 29 10 3 164 37 5 17 102 4 0 10 92 4 5 37 18 1 0 16 14 4 4 14 15 3 17 17 16 1 0 67 164 8 3 1 164 6 0 20 114 2 0 20 100 5 4 35 71 5 0 7 83 8 3 6 5 0 2 6 15 0 0 31 164 10 0 3 164 1 0 4 71 9 0 25 74 3 0 1 90 10 0 3 49 32 5 1 8 1 0 0 1 0
0.069829911 -0.040917378 0 73 29 9 2 2 6 11 18 66 22 2 4 5 15 50 32 70 78 62 15 9 18 15 13 25 47 54 12 14 55 52 18 96 37 18 4 5 18 19 30 65 53 81 70 12 13 20 18 120 61 23 19 11 14 41 34 42 38 8 6 14 27 70 28 10 5 4 2 11 12 41 53 27 16 26 14 5 33 65 25 120 89 9 7 7 11 22 44 49 23 6 18 27 12 58 120 0 0 1 1 9 120 110 10 15 19 12 5 17 51 66 41 76 27 2 3 0 3 42 120 90 18 36 97 16 1 33 120 1 0
0.037002709 -0.047833338 0 19 4 10 117 109 4 3 27 32 6 5 21 14 7 9 35 62 1 3 26 11 5 3 85 117 0 2 47 35 1 1 117 63 10 16 71 31 4 6 51 28 11 12 117 28 8 11 35 117 40 14 28 7 2 1 116 93 15 11 117 65 1 3 76 76 28 12 54 15 0 0 8 44 9 7 117 29 0 0 23 117 117 50 15 4 4 3 32 52 70 65 55 19 0 2 23 14 6 10 37 34 4 8 24 69 8 10 21 10 0 1 33 51 17 11 1 4 9 24 54 49 11 4 0 0 1 5 64 1 0
0.014891495 -0.048727572 0 2 34 96 37 16 0 2 4 36 36 129 26 3 3 7 6 137 94 46 15 20 0 0 6 6 57 87 33 30 0 0 0 46 18 11 19 47 5 22 78 62 21 10 55 56 18 32 26 137 58 3 20 76 0 0 15 13 9 14 35 137 1 1 3 56 46 14 28 51 10 2 11 80 15 9 69 65 8 4 31 137 20 1 13 77 8 0 48 19 10 0 18 135 17 1 6 22 19 7 13 42 3 3 7 57 17 6 13 16 7 5 3 137 36 0 8 44 16 0 4 12 3 1 20 100 33 2 3 1 0
0.0065478059 -0.049032528 0 0 7 51 3 0 0 0 0 0 12 49 1 0 0 0 0 3 21 14 0 0 0 0 0 1 9 3 0 0 0 0 0 1 54 139 45 16 0 0 0 19 87 139 25 1 1 1 2 128 139 109 8 5 0 0 7 6 124 89 12 5 0 0 0 25 32 23 32 50 4 22 61 79 24 30 35 26 19 33 25 139 46 14 35 64 1 1 25 8 44 70 60 79 0 0 1 56 27 11 32 42 6 8 34 84 12 10 79 52 8 9 38 139 15 2 26 87 1 0 46 9 5 1 26 97 2 1 7 1 0
0.10836799 -0.0064250552 0 0 0 0 0 0 0 0 0 6 1 0 26 121 4 1 5 113 1 0 26 78 7 25 99 15 20 69 124 84 19 39 26 0 0 0 0 1 0 0 0 22 11 3 73 115 12 2 4 132 37 3 46 132 20 6 35 29 19 27 94 132 93 86 18 0 0 0 0 1 1 0 0 12 2 0 9 67 56 15 22 125 9 0 4 26 40 42 132 8 1 0 1 35 132 132 21 0 0 0 0 0 0 0 0 0 0 0 0 0 1 0 1 3 0 0 0 0 0 1 5 0 0 0 0 0 6 7 1 1 0
0.025233567 -0.020859612 0 30 1 0 1 8 10 10 23 12 1 0 4 14 13 3 10 30 1 0 1 96 44 11 29 102 0 0 1 132 61 2 13 62 0 0 1 13 28 10 19 24 5 0 3 16 57 7 3 104 10 0 2 105 33 2 10 84 5 2 11 132 76 3 22 103 2 0 0 2 22 15 22 15 1 0 0 51 97 15 4 104 5 0 15 132 12 1 7 103 12 3 48 132 2 0 8 101 6 3 3 5 1 0 6 8 1 3 10 85 11 3 5 44 2 0 13 132 5 5 21 109 1 0 19 132 3 0 28 1 0
0.10132594 -0.019411407 0 0 10 79 14 0 0 0 0 0 28 139 3 0 0 0 0 0 18 55 35 50 1 0 0 11 22 4 15 27 2 0 1 2 30 139 83 11 8 8 5 37 92 139 33 3 8 15 11 139 128 94 22 73 25 3 14 44 11 2 8 66 31 3 20 2 5 14 16 13 60 139 30 39 13 21 10 3 28 139 80 139 23 23 39 41 7 35 106 58 16 6 39 56 7 0 4 0 1 29 15 2 11 38 5 5 11 31 16 6 9 34 11 10 15 36 39 6 7 10 15 43 6 5 25 4 2 6 41 1 0
0.10351346 -0.04363174 0 4 17 70 5 0 1 32 15 5 30 48 3 1 16 67 12 34 27 5 1 7 23 89 36 39 38 7 1 7 10 11 7 12 58 140 32 4 16 45 21 86 140 133 2 0 2 33 57 140 63 14 2 38 59 32 41 6 5 8 3 44 68 25 2 5 3 2 2 2 68 140 53 39 7 1 0 0 2 140 140 138 5 0 3 31 21 73 130 4 0 0 3 40 31 23 6 0 0 0 0 0 11 40 4 0 0 0 0 0 0 38 19 0 0 0 0 2 4 13 14 0 0 0 0 2 4 4 1 1 0
0.102606 -0.032159269 0 22 19 52 50 1 1 0 4 40 46 96 34 3 0 4 51 25 99 65 6 0 0 4 24 1 3 0 0 0 0 0 0 32 13 11 15 16 20 2 4 46 65 83 143 145 4 0 2 150 150 56 28 15 1 0 6 17 10 0 0 0 0 0 1 8 10 8 32 24 14 3 3 48 16 6 23 150 72 32 20 150 32 4 4 40 18 27 93 47 3 0 0 0 0 0 9 9 11 2 5 10 36 28 5 28 44 15 5 23 67 89 29 97 32 58 13 4 20 70 85 16 12 16 0 0 0 0 4 1 0
0.114 -0.019902593 0.069432653 22 111 31 2 0 0 1 8 26 134 25 1 0 0 0 0 2 30 19 7 0 0 0 0 0 0 0 0 0 0 0 0 8 134 90 5 0 0 0 0 18 134 134 8 1 1 1 1 87 134 60 2 0 0 1 5 14 7 1 0 0 0 2 3 71 131 28 16 10 0 0 0 134 72 20 6 1 4 16 46 134 42 4 0 0 0 6 82 44 2 0 0 0 0 9 13 115 23 2 7 22 7 3 17 134 41 0 0 0 0 1 25 134 34 0 0 0 0 0 19 52 5 0 0 2 1 1 2 1 0
0.114 -0.019902593 0.069432653 36 25 49 16 0 0 0 19 132 46 4 0 0 0 0 47 132 16 0 0 0 0 0 81 54 0 0 2 1 0 1 44 27 4 8 3 0 1 40 132 108 40 5 1 5 11 25 110 132 67 2 0 0 0 3 50 45 10 4 0 0 0 0 14 8 0 0 0 0 4 71 132 14 1 0 0 3 21 132 132 96 6 0 0 0 2 60 132 14 5 1 0 0 0 1 6 2 0 0 0 0 2 78 132 0 0 0 0 0 2 59 127 0 0 0 0 2 10 23 22 0 0 0 0 0 0 0 0 1 0
0.114 -0.05041308 0.06511607 1 0 24 111 20 3 8 7 14 85 96 110 25 11 2 1 78 129 16 1 1 0 0 3 7 4 0 0 0 0 2 1 5 14 25 129 63 7 0 0 54 50 15 28 129 47 3 7 129 109 2 1 17 5 2 16 41 6 0 0 0 0 0 0 27 10 6 18 114 61 30 34 45 7 2 2 40 58 127 87 129 2 0 0 5 14 65 115 38 0 0 0 0 0 0 5 2 4 24 14 16 55 81 31 2 7 50 12 0 6 94 64 22 25 24 2 0 4 43 43 8 2 0 0 0 0 0 4 1 0
0.114 -0.054974556 0.06250488 0 6 18 9 23 56 46 3 2 3 23 4 7 62 122 21 31 6 7 1 9 46 95 83 35 0 0 25 16 0 4 45 3 67 122 72 17 1 3 0 10 52 122 87 6 6 11 0 88 122 76 8 4 4 21 13 13 8 0 48 68 0 2 6 78 45 41 64 69 4 1 19 69 27 29 54 47 20 15 31 122 34 9 10 12 1 5 51 29 2 0 59 95 0 0 1 78 7 0 3 48 40 30 40 32 5 0 0 5 17 53 122 59 0 0 20 29 1 21 122 6 0 0 66 79 0 0 3 1 0
0.114 -0.033593196 0.06099385 43 53 12 0 0 4 4 9 29 81 31 1 1 5 3 1 18 47 17 0 0 0 0 0 1 4 1 0 0 0 1 1 71 24 1 7 15 8 12 23 22 47 106 108 97 12 5 3 123 133 126 19 6 1 0 9 41 30 1 0 0 0 0 1 36 31 11 14 25 5 3 2 40 14 11 63 133 60 1 9 133 95 11 10 29 13 1 58 91 34 0 0 0 0 0 11 58 30 9 24 18 2 0 1 40 5 5 130 129 16 4 25 133 15 2 11 12 2 2 133 51 5 0 0 0 0 0 33 1 0
0.114 -0.031009719 0.059496827 52 11 1 35 120 27 3 26 120 33 1 1 18 12 2 81 6 2 0 0 38 42 23 13 2 0 0 0 2 71 53 5 37 35 1 16 120 94 5 6 120 120 1 2 17 13 5 27 36 10 2 2 25 64 7 9 5 4 26 53 18 21 7 3 8 2 0 1 112 120 120 24 120 16 4 1 10 28 116 120 32 15 17 10 56 39 3 9 0 0 13 58 113 43 1 0 0 0 0 0 5 49 54 1 1 2 2 0 24 80 53 7 1 7 9 5 15 43 42 2 0 0 0 2 38 102 10 0 1 0
0.114 -0.055119712 0.056813054 7 1 9 107 65 2 11 12 52 76 22 13 5 17 32 12 122 97 1 0 2 1 1 1 17 4 0 2 27 1 0 0 64 1 0 14 109 26 15 33 84 7 0 0 53 59 37 33 122 34 0 0 9 7 9 36 35 4 0 18 48 0 0 2 13 0 2 1 28 69 122 63 14 1 14 8 8 50 122 71 74 14 19 2 5 8 66 120 13 3 0 13 95 3 0 8 0 5 77 39 7 6 27 5 1 8 114 122 10 2 20 5 46 122 100 25 5 0 5 5 20 28 1 2 87 5 0 0 1 0
0.114 -0.050628431 0.056481272 5 2 13 7 43 81 87 34 7 4 26 3 1 23 124 88 47 9 10 1 0 11 72 81 13 1 0 0 0 0 0 7 11 35 96 85 60 7 15 2 23 67 124 74 20 1 14 6 117 118 65 10 2 1 5 7 17 5 0 0 0 0 0 1 28 23 16 23 124 14 0 0 83 33 35 63 69 2 1 33 124 25 5 6 7 0 0 72 28 1 0 0 1 0 0 3 0 4 7 5 85 119 20 3 33 9 15 10 4 24 50 124 97 13 0 0 0 0 1 121 8 1 0 0 0 0 0 2 1 0
0.114 -0.012906723 0.046128761 40 9 0 0 112 93 0 1 88 42 10 65 94 23 1 1 70 84 32 70 82 24 17 18 69 55 0 0 0 5 27 28 18 3 0 0 112 112 0 3 112 6 1 2 65 102 36 24 40 10 0 2 39 110 112 66 56 25 0 4 5 7 55 61 20 7 0 0 96 85 0 1 112 15 0 0 59 68 10 12 56 7 0 0 13 49 70 20 0 0 0 1 6 34 63 37 39 20 0 0 46 31 0 0 79 16 0 0 80 59 0 1 78 22 0 0 1 4 11 6 1 2 1 1 0 6 13 7 1 0
0.114 -0.012906723 0.046128761 11 16 29 58 1 5 4 4 44 72 23 12 0 3 9 19 39 52 2 1 0 0 0 14 3 5 9 13 2 1 0 0 20 42 74 120 19 17 26 21 120 118 37 14 0 0 10 59 53 22 61 43 0 0 3 34 3 3 74 81 0 0 7 23 7 2 22 55 21 75 120 45 80 17 88 33 1 1 46 113 15 6 105 53 0 0 24 120 0 0 23 19 0 0 48 120 2 0 63 83 3 5 29 72 3 0 31 18 0 0 60 120 2 0 14 14 0 0 43 120 0 0 44 78 0 0 12 35 1 0
0.114 -0.056389496 0.042060539 20 6 9 33 34 12 31 34 31 36 74 45 15 5 0 3 141 91 17 3 1 1 0 3 19 7 0 0 0 0 0 0 0 0 13 64 134 38 19 3 57 39 42 50 124 39 15 13 141 109 12 4 10 3 5 38 46 10 0 0 0 0 0 3 0 0 1 3 31 141 77 0 17 0 0 1 41 96 141 71 141 2 0 0 3 5 95 141 24 0 0 1 1 0 1 16 0 0 43 12 0 28 29 0 1 4 64 4 0 7 96 14 4 17 28 2 1 0 30 30 1 3 2 6 4 0 0 2 1 0
0.114 -0.056541014 0.040181004 59 23 12 6 5 5 46 47 18 12 25 20 14 3 2 5 137 6 5 8 9 2 2 32 42 0 0 0 0 2 6 11 1 0 21 87 78 18 67 18 23 38 113 78 52 7 3 4 137 99 40 7 5 1 0 16 56 4 0 0 0 0 0 3 0 0 10 30 88 117 26 0 47 10 7 31 123 79 79 42 137 26 4 5 11 5 26 135 45 3 0 0 0 0 1 8 0 1 15 1 8 93 47 0 3 2 9 0 5 64 137 36 34 2 2 1 1 2 75 122 5 0 0 1 1 0 1 7 1 0
0.114 -0.033439916 0.038846649 85 8 0 1 28 41 47 40 120 46 1 9 35 5 3 10 6 4 30 49 73 15 0 0 59 44 23 18 4 1 0 0 37 3 0 0 56 91 99 29 120 38 0 3 51 31 9 22 22 4 1 38 120 37 0 2 95 37 3 20 19 3 0 0 48 12 3 12 120 41 3 11 120 80 11 17 81 20 1 19 21 19 0 27 120 63 4 1 87 16 1 4 20 29 4 0 47 22 2 12 120 17 0 0 119 81 10 14 100 21 3 17 60 23 0 0 62 65 3 11 42 10 0 0 47 38 2 0 1 0
0.114 -0.033439916 0.038846649 40 74 7 0 12 7 0 0 30 58 6 8 96 55 1 0 114 47 2 3 68 85 16 15 82 22 0 0 45 43 1 4 23 46 8 0 50 24 0 1 114 81 7 0 21 37 1 9 75 38 1 9 114 84 13 10 88 77 12 13 51 12 1 3 19 5 2 0 83 59 2 13 114 53 1 0 14 5 1 22 44 37 6 6 114 78 0 2 27 80 114 34 50 14 0 0 5 1 0 0 68 69 9 11 58 24 0 0 2 6 23 50 56 13 1 2 114 71 2 11 11 22 20 34 114 44 2 2 1 0
0.114 -0.050753932 0.038728684 7 3 12 10 13 19 9 3 0 8 31 20 54 22 13 4 3 12 77 44 67 49 57 8 122 72 44 1 0 6 36 53 5 18 71 57 31 6 1 1 87 58 43 8 18 49 34 18 20 1 0 1 29 121 127 36 65 0 0 0 1 5 59 127 19 15 17 38 127 18 2 3 127 51 12 5 19 6 6 26 90 4 0 10 82 31 26 40 50 3 0 0 3 2 14 89 10 3 5 5 68 61 40 21 127 6 1 3 23 7 30 118 76 17 1 21 77 3 0 20 70 13 0 0 0 0 0 11 1 0
0.114 -0.028334476 0.033993267 11 8 3 13 129 20 3 3 129 14 2 10 70 13 8 49 29 3 5 53 104 18 2 8 19 3 4 13 38 17 11 10 22 32 9 81 129 4 0 1 129 64 13 35 81 5 0 6 50 8 3 27 129 43 3 8 17 17 16 9 14 16 19 11 48 16 0 19 129 79 6 9 129 7 1 7 64 41 12 65 46 1 0 5 129 38 2 8 16 14 8 9 45 12 2 2 46 6 1 26 91 19 2 19 129 32 6 21 49 11 3 21 24 6 8 42 107 15 0 3 5 3 6 17 45 10 1 2 1 0
0.114 -0.013031548 0.034158487 10 2 1 4 139 22 0 2 139 25 3 4 69 7 0 8 23 2 1 7 112 31 10 1 8 10 7 8 32 11 8 3 12 1 0 2 139 11 1 2 139 7 1 3 100 8 1 17 32 1 11 35 136 16 2 3 15 1 6 12 49 12 8 20 14 1 0 8 139 8 0 2 139 4 0 1 98 7 1 13 37 1 1 2 139 28 5 10 6 3 13 13 15 16 17 18 12 1 0 1 139 17 0 1 139 8 0 1 67 9 0 4 31 1 1 8 85 35 7 2 2 3 9 15 47 13 6 2 1 0
0.114 -0.030617911 0.066149406 31 26 7 12 41 8 2 9 35 71 68 56 107 49 1 0 136 136 17 1 2 3 0 1 21 20 0 0 0 0 0 0 7 48 37 9 18 8 1 5 41 29 4 28 136 80 2 4 136 81 1 5 27 9 1 20 83 13 1 6 0 0 0 3 42 113 45 3 4 1 0 2 40 28 2 15 96 66 49 41 136 10 1 2 13 18 46 136 55 4 4 15 0 0 0 13 105 25 5 0 0 0 4 68 69 4 0 0 0 7 33 124 18 0 0 0 0 2 42 87 5 1 1 1 0 0 0 4 1 0
0.114 -0.05820797 0.063543119 0 6 64 14 8 48 91 6 24 34 34 6 2 34 98 75 31 5 1 48 34 0 6 51 0 0 1 18 6 0 0 0 18 50 122 70 8 3 3 5 122 122 84 28 7 2 4 19 45 23 1 76 95 0 0 3 0 0 0 10 9 0 0 0 68 12 9 12 15 15 40 106 122 8 2 18 26 4 30 122 33 2 1 90 104 1 1 13 0 0 0 3 2 0 0 0 10 2 3 4 2 13 91 122 2 0 6 122 45 1 20 111 0 0 8 122 58 0 1 3 0 0 0 0 0 0 0 0 1 0
0.114 -0.026021287 0.058453791 0 7 109 67 0 0 0 0 6 42 57 31 11 15 2 4 1 13 29 36 49 109 49 1 4 95 37 2 14 97 45 1 26 34 109 87 17 0 0 3 109 109 58 4 1 1 0 7 13 16 58 40 10 24 11 1 3 18 48 11 25 102 28 4 64 7 9 43 45 16 21 79 109 21 22 21 16 6 8 69 5 6 99 109 22 2 0 0 14 74 108 34 1 2 2 1 5 0 0 0 7 24 95 99 5 0 0 5 73 51 27 60 0 0 10 59 109 26 1 1 54 31 21 32 10 1 1 24 1 0
0.114 -0.026021287 0.058453791 0 11 57 15 43 6 0 0 0 4 15 26 112 106 5 0 55 85 14 6 13 63 24 19 112 80 4 0 0 0 1 33 15 99 112 4 3 1 0 0 57 37 27 6 20 68 33 15 24 1 0 0 1 109 112 74 96 2 0 0 0 2 26 112 91 48 7 0 0 7 18 32 112 26 2 0 0 3 4 39 34 11 19 25 1 14 32 45 39 30 47 24 3 4 15 33 14 0 0 1 2 16 112 64 37 6 42 33 9 3 10 76 10 6 90 112 5 0 6 27 71 53 54 59 3 0 7 87 1 0
0.114 -0.026860962 0.046593849 13 3 0 18 71 20 0 2 121 4 1 3 6 4 1 11 72 5 21 49 0 0 0 3 0 0 63 74 0 0 0 0 19 1 0 0 82 58 3 7 121 8 2 9 23 8 0 6 45 7 24 121 75 0 0 0 0 4 121 109 18 0 0 0 20 0 0 1 121 53 3 6 121 10 3 16 55 9 0 7 18 5 3 121 121 7 0 1 13 6 26 121 80 3 1 7 21 0 0 4 121 3 0 3 104 2 1 4 52 12 2 21 8 1 2 20 121 79 3 3 8 0 0 11 60 50 44 40 1 0
0.114 -0.026860962 0.046593849 27 117 35 13 2 2 3 12 24 75 5 2 61 32 2 8 80 82 0 0 46 25 0 0 36 58 7 2 44 33 0 0 117 89 14 10 8 1 1 12 117 55 1 0 24 29 3 16 30 53 1 0 84 87 2 4 25 117 19 5 22 5 0 0 106 4 0 0 5 8 31 111 117 19 0 0 7 14 5 79 25 7 0 0 117 117 3 13 25 78 3 1 32 22 0 0 5 0 0 0 0 3 66 116 38 0 0 0 2 4 10 117 6 0 0 0 95 85 2 15 25 9 1 0 55 56 2 3 1 0
0.114 -0.0399983 0.038618345 4 6 11 31 46 59 20 13 132 41 10 4 12 17 25 111 89 12 0 5 55 12 0 23 93 12 1 0 1 0 0 8 14 19 31 85 118 13 2 5 132 108 29 14 12 5 2 25 113 15 6 7 41 31 4 13 56 54 30 2 1 1 1 5 14 2 1 5 94 97 48 22 132 9 1 4 10 24 32 72 86 10 23 64 59 7 1 4 49 57 61 21 6 0 0 1 20 1 0 0 23 57 52 45 120 3 0 2 32 45 27 35 47 3 2 32 113 5 0 6 92 21 6 15 22 1 0 0 1 0
0.114 -0.040681541 0.035292454 6 1 8 12 17 12 5 14 24 7 5 18 97 101 29 32 135 20 2 4 26 17 20 106 94 17 1 6 27 5 0 13 12 4 7 20 49 7 11 21 33 38 45 110 122 22 8 12 135 106 25 10 23 13 6 35 88 19 9 3 29 18 3 13 6 18 22 14 46 11 2 4 44 7 4 15 132 114 58 35 135 18 2 13 20 20 24 56 33 18 41 50 40 7 1 3 27 8 4 6 7 2 3 31 38 4 0 2 36 70 60 59 132 8 1 8 52 36 20 32 29 7 4 31 89 5 0 2 1 0
0.114 -0.05750249 0.069319859 0 0 0 0 0 0 0 0 2 1 0 0 0 0 0 0 2 6 15 17 5 0 0 0 5 58 37 8 0 0 0 0 13 2 0 0 0 0 0 4 143 39 0 4 7 0 0 32 76 13 36 143 143 2 0 4 45 143 128 78 50 6 2 5 6 0 0 0 0 0 0 4 143 28 1 6 14 1 0 53 79 21 2 73 143 84 17 10 66 39 6 20 65 38 52 143 0 0 0 0 0 0 0 0 30 8 0 0 1 1 0 1 68 21 0 2 29 95 52 11 6 1 24 55 31 41 69 97 1 0
