# .PCD v0.7 - Point Cloud Data file format
VERSION 0.7
FIELDS x y z rgb
SIZE 4 4 4 4
TYPE F F F F
COUNT 1 1 1 1
WIDTH 1001
HEIGHT 1
VIEWPOINT 0 0 0 1 0 0 0
POINTS 1001
DATA ascii
0.075000003 -0.061000001 0.056000002 2.1607591e-38
0.075000003 -0.061000001 0.055 2.1699059e-38
0.075000003 -0.061000001 0.054000001 2.2067481e-38
0.075000003 -0.061000001 0.052999999 2.1514673e-38
0.075000003 -0.061000001 0.052000001 2.1331723e-38
0.075000003 -0.061000001 0.050999999 2.0781422e-38
0.075000003 -0.061000001 0.050000001 2.2617773e-38
0.075000003 -0.061000001 0.048999999 2.1424996e-38
0.075000003 -0.061000001 0.048 2.1628125e-38
0.075000003 -0.061000001 0.046999998 2.3325462e-38
0.075000003 -0.061000001 0.046 2.3509867e-38
0.075000003 -0.061000001 0.045000002 2.304673e-38
0.075000003 -0.061000001 0.044 2.3325835e-38
0.075000003 -0.061000001 0.043000001 2.2312768e-38
0.075000003 -0.061000001 0.041999999 8.4935138e-39
0.075000003 -0.061000001 0.041000001 5.4492363e-39
0.075000003 -0.061000001 0.039999999 5.3563233e-39
0.075000003 -0.061000001 0.039000001 7.1959184e-39
0.075000003 -0.061000001 0.037999999 1.7980997e-38
0.075000003 -0.061000001 0.037 2.295887e-38
0.075000003 -0.061000001 0.035999998 2.3509886e-38
0.075000003 -0.061000001 0.035 2.3509886e-38
0.075000003 -0.061000001 0.034000002 2.3509886e-38
0.075000003 -0.061000001 0.033 2.3509886e-38
0.075000003 -0.061000001 0.032000002 2.3509886e-38
0.075000003 -0.061000001 0.030999999 2.3509886e-38
0.075000003 -0.061000001 0.029999999 2.3509886e-38
0.075000003 -0.061000001 0.028999999 2.3509886e-38
0.075000003 -0.061000001 0.028000001 2.3233662e-38
0.075000003 -0.061000001 0.027000001 1.5866708e-38
0.075000003 -0.061000001 0.026000001 2.341805e-38
0.075000003 -0.061000001 0.025 2.3509525e-38
0.075000003 -0.061000001 0.024 1.5405341e-38
0.075000003 -0.061000001 0.023 2.2035477e-38
0.075000003 -0.061000001 0.022 2.3509886e-38
0.075000003 -0.061000001 0.021 1.909819e-38
0.075000003 -0.061000001 0.02 2.1757101e-38
0.075000003 -0.061000001 0.018999999 2.3509886e-38
0.075000003 -0.061000001 0.017999999 1.9725616e-38
0.075000003 -0.061000001 0.017000001 1.6885164e-38
0.075000003 -0.061000001 0.016000001 2.3509886e-38
0.075000003 -0.061000001 0.015 2.3509884e-38
0.075000003 -0.061000001 0.014 2.0380266e-38
0.075000003 -0.061000001 0.013 2.3509886e-38
0.075000003 -0.061000001 0.012 1.9259896e-38
0.075000003 -0.061000001 0.011 1.7695436e-38
0.075000003 -0.061000001 0.0099999998 2.3509886e-38
0.075000003 -0.061000001 0.0089999996 2.3509527e-38
0.075000003 -0.061000001 0.0080000004 1.4208627e-38
0.075000003 -0.061000001 0.0070000002 2.2213029e-38
0.075000003 -0.061000001 0.0060000001 2.3509886e-38
0.075000003 -0.061000001 0.0049999999 2.2858395e-38
0.075000003 -0.061000001 0.0040000002 2.2213769e-38
0.075000003 -0.061000001 0.003 2.3142544e-38
0.075000003 -0.061000001 0.0020000001 2.3509886e-38
0.075000003 -0.061000001 0.001 2.3509886e-38
0.075999998 -0.061000001 0.072999999 7.0245158e-39
0.075999998 -0.061000001 0.071999997 8.3061994e-39
0.075999998 -0.061000001 0.071000002 7.8452143e-39
0.075999998 -0.061000001 0.07 6.651727e-39
0.075999998 -0.061000001 0.068999998 8.2143752e-39
0.075999998 -0.061000001 0.068000004 7.845573e-39
0.075999998 -0.061000001 0.067000002 8.2168709e-39
0.075999998 -0.061000001 0.066 8.6807147e-39
0.075999998 -0.061000001 0.064999998 9.5994326e-39
0.075999998 -0.061000001 0.064000003 9.2313787e-39
0.075999998 -0.061000001 0.063000001 1.4807462e-38
0.075999998 -0.061000001 0.061999999 2.1055855e-38
0.075999998 -0.061000001 0.061000001 2.151468e-38
0.075999998 -0.061000001 0.059999999 2.1883455e-38
0.075999998 -0.061000001 0.059 2.1699051e-38
0.075999998 -0.061000001 0.057999998 2.142427e-38
0.075999998 -0.061000001 0.057 2.1422113e-38
0.075999998 -0.061000001 0.056000002 2.1974926e-38
0.075999998 -0.061000001 0.055 2.1881299e-38
0.075999998 -0.061000001 0.054000001 2.1055139e-38
0.075999998 -0.061000001 0.052999999 2.1697984e-38
0.075999998 -0.061000001 0.052000001 2.1882376e-38
0.075999998 -0.061000001 0.050999999 2.2067472e-38
0.075999998 -0.061000001 0.050000001 2.2158238e-38
0.075999998 -0.061000001 0.048999999 2.2158244e-38
0.075999998 -0.061000001 0.048 2.1533428e-38
0.075999998 -0.061000001 0.046999998 2.2866286e-38
0.075999998 -0.061000001 0.046 2.3508791e-38
0.075999998 -0.061000001 0.045000002 2.222417e-38
0.075999998 -0.061000001 0.044 2.286594e-38
0.075999998 -0.061000001 0.043000001 1.7150514e-38
0.075999998 -0.061000001 0.041999999 5.8162322e-39
0.075999998 -0.061000001 0.041000001 6.1839147e-39
0.075999998 -0.061000001 0.039999999 6.4630211e-39
0.075999998 -0.061000001 0.039000001 1.9822395e-38
0.075999998 -0.061000001 0.037999999 2.3509877e-38
0.075999998 -0.061000001 0.037 2.3509886e-38
0.075999998 -0.061000001 0.035999998 2.3509886e-38
0.075999998 -0.061000001 0.035 2.3509886e-38
0.075999998 -0.061000001 0.034000002 2.3509886e-38
0.075999998 -0.061000001 0.033 2.3509886e-38
0.075999998 -0.061000001 0.032000002 2.3509886e-38
0.075999998 -0.061000001 0.030999999 2.3509886e-38
0.075999998 -0.061000001 0.029999999 2.3509886e-38
0.075999998 -0.061000001 0.028999999 2.3509886e-38
0.075999998 -0.061000001 0.028000001 2.3509886e-38
0.075999998 -0.061000001 0.027000001 2.0097566e-38
0.075999998 -0.061000001 0.026000001 2.3326215e-38
0.075999998 -0.061000001 0.025 2.3509886e-38
0.075999998 -0.061000001 0.024 1.5967168e-38
0.075999998 -0.061000001 0.023 2.1487701e-38
0.075999998 -0.061000001 0.022 2.3509886e-38
0.075999998 -0.061000001 0.021 1.8527433e-38
0.075999998 -0.061000001 0.02 2.3047809e-38
0.075999998 -0.061000001 0.018999999 2.3509886e-38
0.075999998 -0.061000001 0.017999999 2.1649455e-38
0.075999998 -0.061000001 0.017000001 2.3141825e-38
0.075999998 -0.061000001 0.016000001 2.3509886e-38
0.075999998 -0.061000001 0.015 2.3234379e-38
0.075999998 -0.061000001 0.014 2.1571617e-38
0.075999998 -0.061000001 0.013 2.3047115e-38
0.075999998 -0.061000001 0.012 1.5119786e-38
0.075999998 -0.061000001 0.011 1.4109953e-38
0.075999998 -0.061000001 0.0099999998 2.2958152e-38
0.075999998 -0.061000001 0.0089999996 2.1764294e-38
0.075999998 -0.061000001 0.0080000004 1.5313182e-38
0.075999998 -0.061000001 0.0070000002 2.1577034e-38
0.075999998 -0.061000001 0.0060000001 2.3509886e-38
0.075999998 -0.061000001 0.0049999999 2.0739338e-38
0.075999998 -0.061000001 0.0040000002 2.2407829e-38
0.075999998 -0.061000001 0.003 2.3509886e-38
0.075999998 -0.061000001 0.0020000001 2.3509886e-38
0.075999998 -0.061000001 0.001 2.3509886e-38
0.077 -0.061000001 0.072999999 8.4974599e-39
0.077 -0.061000001 0.071999997 7.6658607e-39
0.077 -0.061000001 0.071000002 8.7703978e-39
0.077 -0.061000001 0.07 8.3097854e-39
0.077 -0.061000001 0.068999998 7.5729434e-39
0.077 -0.061000001 0.068000004 7.9413602e-39
0.077 -0.061000001 0.067000002 7.9388435e-39
0.077 -0.061000001 0.066 7.5711399e-39
0.077 -0.061000001 0.064999998 7.1123352e-39
0.077 -0.061000001 0.064000003 9.4125344e-39
0.077 -0.061000001 0.063000001 1.4533396e-38
0.077 -0.061000001 0.061999999 2.1054771e-38
0.077 -0.061000001 0.061000001 2.1973852e-38
0.077 -0.061000001 0.059999999 2.1607225e-38
0.077 -0.061000001 0.059 2.1423195e-38
0.077 -0.061000001 0.057999998 2.1975643e-38
0.077 -0.061000001 0.057 2.1148406e-38
0.077 -0.061000001 0.056000002 2.1332436e-38
0.077 -0.061000001 0.055 2.1422119e-38
0.077 -0.061000001 0.054000001 2.1516103e-38
0.077 -0.061000001 0.052999999 2.1239527e-38
0.077 -0.061000001 0.052000001 2.2250078e-38
0.077 -0.061000001 0.050999999 2.1606509e-38
0.077 -0.061000001 0.050000001 2.2894713e-38
0.077 -0.061000001 0.048999999 2.1608305e-38
0.077 -0.061000001 0.048 2.217555e-38
0.077 -0.061000001 0.046999998 2.3048871e-38
0.077 -0.061000001 0.046 2.2130169e-38
0.077 -0.061000001 0.045000002 1.9922878e-38
0.077 -0.061000001 0.044 1.8810752e-38
0.077 -0.061000001 0.043000001 1.2265245e-38
0.077 -0.061000001 0.041999999 5.6354269e-39
0.077 -0.061000001 0.041000001 6.921128e-39
0.077 -0.061000001 0.039999999 1.190148e-38
0.077 -0.061000001 0.039000001 2.3418047e-38
0.077 -0.061000001 0.037999999 2.3509886e-38
0.077 -0.061000001 0.037 2.3509886e-38
0.077 -0.061000001 0.035999998 2.3509886e-38
0.077 -0.061000001 0.035 2.3509886e-38
0.077 -0.061000001 0.034000002 2.3509886e-38
0.077 -0.061000001 0.033 2.3509886e-38
0.077 -0.061000001 0.032000002 2.3509886e-38
0.077 -0.061000001 0.030999999 2.3509886e-38
0.077 -0.061000001 0.029999999 2.3509886e-38
0.077 -0.061000001 0.028999999 2.3509886e-38
0.077 -0.061000001 0.028000001 2.3509886e-38
0.077 -0.061000001 0.027000001 1.521882e-38
0.077 -0.061000001 0.026000001 2.3142544e-38
0.077 -0.061000001 0.025 2.3509886e-38
0.077 -0.061000001 0.024 1.9542288e-38
0.077 -0.061000001 0.023 2.1760346e-38
0.077 -0.061000001 0.022 2.3509886e-38
0.077 -0.061000001 0.021 1.7053777e-38
0.077 -0.061000001 0.02 2.2129841e-38
0.077 -0.061000001 0.018999999 2.3509886e-38
0.077 -0.061000001 0.017999999 2.0638177e-38
0.077 -0.061000001 0.017000001 2.0820469e-38
0.077 -0.061000001 0.016000001 2.3509886e-38
0.077 -0.061000001 0.015 2.3509886e-38
0.077 -0.061000001 0.014 2.249248e-38
0.077 -0.061000001 0.013 2.3138591e-38
0.077 -0.061000001 0.012 1.5028298e-38
0.077 -0.061000001 0.011 1.6138204e-38
0.077 -0.061000001 0.0099999998 2.2865961e-38
0.077 -0.061000001 0.0089999996 2.3509884e-38
0.077 -0.061000001 0.0080000004 1.7143057e-38
0.077 -0.061000001 0.0070000002 1.9728074e-38
0.077 -0.061000001 0.0060000001 2.3509886e-38
0.077 -0.061000001 0.0049999999 1.7883882e-38
0.077 -0.061000001 0.0040000002 2.2032247e-38
0.077 -0.061000001 0.003 2.3509886e-38
0.077 -0.061000001 0.0020000001 2.3509886e-38
0.077 -0.061000001 0.001 2.3509886e-38
0.078000002 -0.061000001 0.072999999 9.1413958e-39
0.078000002 -0.061000001 0.071999997 7.9417287e-39
0.078000002 -0.061000001 0.071000002 8.1232389e-39
0.078000002 -0.061000001 0.07 7.2030931e-39
0.078000002 -0.061000001 0.068999998 7.3882004e-39
0.078000002 -0.061000001 0.068000004 7.0215773e-39
0.078000002 -0.061000001 0.067000002 7.1134058e-39
0.078000002 -0.061000001 0.066 7.1108947e-39
0.078000002 -0.061000001 0.064999998 7.1105261e-39
0.078000002 -0.061000001 0.064000003 7.9366827e-39
0.078000002 -0.061000001 0.063000001 1.2969669e-38
0.078000002 -0.061000001 0.061999999 2.0872184e-38
0.078000002 -0.061000001 0.061000001 2.225079e-38
0.078000002 -0.061000001 0.059999999 2.1331002e-38
0.078000002 -0.061000001 0.059 2.2341193e-38
0.078000002 -0.061000001 0.057999998 2.1515032e-38
0.078000002 -0.061000001 0.057 2.1791255e-38
0.078000002 -0.061000001 0.056000002 2.1790532e-38
0.078000002 -0.061000001 0.055 2.1332079e-38
0.078000002 -0.061000001 0.054000001 2.2433747e-38
0.078000002 -0.061000001 0.052999999 2.2433747e-38
0.078000002 -0.061000001 0.052000001 2.1239517e-38
0.078000002 -0.061000001 0.050999999 2.2341194e-38
0.078000002 -0.061000001 0.050000001 2.2158597e-38
0.078000002 -0.061000001 0.048999999 2.1700134e-38
0.078000002 -0.061000001 0.048 1.7387485e-38
0.078000002 -0.061000001 0.046999998 1.3095703e-38
0.078000002 -0.061000001 0.046 1.2452878e-38
0.078000002 -0.061000001 0.045000002 1.014546e-38
0.078000002 -0.061000001 0.044 8.0249588e-39
0.078000002 -0.061000001 0.043000001 6.5541434e-39
0.078000002 -0.061000001 0.041999999 8.1182489e-39
0.078000002 -0.061000001 0.041000001 2.0099715e-38
0.078000002 -0.061000001 0.039999999 2.3509866e-38
0.078000002 -0.061000001 0.039000001 2.3509881e-38
0.078000002 -0.061000001 0.037999999 2.3509886e-38
0.078000002 -0.061000001 0.037 2.3509886e-38
0.078000002 -0.061000001 0.035999998 2.3509886e-38
0.078000002 -0.061000001 0.035 2.3509886e-38
0.078000002 -0.061000001 0.034000002 2.3509886e-38
0.078000002 -0.061000001 0.033 2.3509886e-38
0.078000002 -0.061000001 0.032000002 2.3509886e-38
0.078000002 -0.061000001 0.030999999 2.3509886e-38
0.078000002 -0.061000001 0.029999999 2.3509886e-38
0.078000002 -0.061000001 0.028999999 2.3509886e-38
0.078000002 -0.061000001 0.028000001 2.3509886e-38
0.078000002 -0.061000001 0.027000001 1.587138e-38
0.078000002 -0.061000001 0.026000001 2.3221802e-38
0.078000002 -0.061000001 0.025 2.341805e-38
0.078000002 -0.061000001 0.024 1.6129619e-38
0.078000002 -0.061000001 0.023 2.2496106e-38
0.078000002 -0.061000001 0.022 2.3509886e-38
0.078000002 -0.061000001 0.021 1.4390161e-38
0.078000002 -0.061000001 0.02 1.890192e-38
0.078000002 -0.061000001 0.018999999 2.3509886e-38
0.078000002 -0.061000001 0.017999999 2.3509886e-38
0.078000002 -0.061000001 0.017000001 2.2223471e-38
0.078000002 -0.061000001 0.016000001 2.3509886e-38
0.078000002 -0.061000001 0.015 2.3326215e-38
0.078000002 -0.061000001 0.014 2.3496931e-38
0.078000002 -0.061000001 0.013 2.341805e-38
0.078000002 -0.061000001 0.012 1.8239679e-38
0.078000002 -0.061000001 0.011 1.9814883e-38
0.078000002 -0.061000001 0.0099999998 2.3234379e-38
0.078000002 -0.061000001 0.0089999996 2.3509886e-38
0.078000002 -0.061000001 0.0080000004 2.3050707e-38
0.078000002 -0.061000001 0.0070000002 2.3509881e-38
0.078000002 -0.061000001 0.0060000001 2.3509886e-38
0.078000002 -0.061000001 0.0049999999 1.5587639e-38
0.078000002 -0.061000001 0.0040000002 2.3324421e-38
0.078000002 -0.061000001 0.003 2.3509886e-38
0.078000002 -0.061000001 0.0020000001 2.3509886e-38
0.078000002 -0.061000001 0.001 2.3509886e-38
0.079000004 -0.061000001 0.072999999 9.6895347e-39
0.079000004 -0.061000001 0.071999997 7.572949e-39
0.079000004 -0.061000001 0.071000002 7.2056084e-39
0.079000004 -0.061000001 0.07 7.8463003e-39
0.079000004 -0.061000001 0.068999998 7.4793156e-39
0.079000004 -0.061000001 0.068000004 7.4803834e-39
0.079000004 -0.061000001 0.067000002 8.122513e-39
0.079000004 -0.061000001 0.066 8.031765e-39
0.079000004 -0.061000001 0.064999998 8.2147213e-39
0.079000004 -0.061000001 0.064000003 7.6647915e-39
0.079000004 -0.061000001 0.063000001 1.3705073e-38
0.079000004 -0.061000001 0.061999999 2.1881652e-38
0.079000004 -0.061000001 0.061000001 2.1423191e-38
0.079000004 -0.061000001 0.059999999 2.1791258e-38
0.079000004 -0.061000001 0.059 2.2531706e-38
0.079000004 -0.061000001 0.057999998 2.2630746e-38
0.079000004 -0.061000001 0.057 2.1798473e-38
0.079000004 -0.061000001 0.056000002 2.1883815e-38
0.079000004 -0.061000001 0.055 2.2898321e-38
0.079000004 -0.061000001 0.054000001 2.3096376e-38
0.079000004 -0.061000001 0.052999999 2.318749e-38
0.079000004 -0.061000001 0.052000001 2.3280427e-38
0.079000004 -0.061000001 0.050999999 2.1426808e-38
0.079000004 -0.061000001 0.050000001 2.2617774e-38
0.079000004 -0.061000001 0.048999999 2.160687e-38
0.079000004 -0.061000001 0.048 1.4168202e-38
0.079000004 -0.061000001 0.046999998 6.5559286e-39
0.079000004 -0.061000001 0.046 7.0172767e-39
0.079000004 -0.061000001 0.045000002 8.4945704e-39
0.079000004 -0.061000001 0.044 1.7065523e-38
0.079000004 -0.061000001 0.043000001 1.8357342e-38
0.079000004 -0.061000001 0.041999999 2.1486235e-38
0.079000004 -0.061000001 0.041000001 2.3507367e-38
0.079000004 -0.061000001 0.039999999 2.3509879e-38
0.079000004 -0.061000001 0.039000001 2.3509883e-38
0.079000004 -0.061000001 0.037999999 2.3509886e-38
0.079000004 -0.061000001 0.037 2.3509886e-38
0.079000004 -0.061000001 0.035999998 2.3509886e-38
0.079000004 -0.061000001 0.035 2.3509886e-38
0.079000004 -0.061000001 0.034000002 2.3509886e-38
0.079000004 -0.061000001 0.033 2.3509886e-38
0.079000004 -0.061000001 0.032000002 2.3509886e-38
0.079000004 -0.061000001 0.030999999 2.3509886e-38
0.079000004 -0.061000001 0.029999999 2.3509886e-38
0.079000004 -0.061000001 0.028999999 2.3509886e-38
0.079000004 -0.061000001 0.028000001 2.3509886e-38
0.079000004 -0.061000001 0.027000001 2.2947728e-38
0.079000004 -0.061000001 0.026000001 2.3231509e-38
0.079000004 -0.061000001 0.025 2.3509886e-38
0.079000004 -0.061000001 0.024 1.3567198e-38
0.079000004 -0.061000001 0.023 2.1395515e-38
0.079000004 -0.061000001 0.022 2.3509527e-38
0.079000004 -0.061000001 0.021 2.1841728e-38
0.079000004 -0.061000001 0.02 2.1836339e-38
0.079000004 -0.061000001 0.018999999 2.3509886e-38
0.079000004 -0.061000001 0.017999999 2.3509886e-38
0.079000004 -0.061000001 0.017000001 2.3509886e-38
0.079000004 -0.061000001 0.016000001 2.3509886e-38
0.079000004 -0.061000001 0.015 2.3142544e-38
0.079000004 -0.061000001 0.014 2.3221774e-38
0.079000004 -0.061000001 0.013 2.3509886e-38
0.079000004 -0.061000001 0.012 1.5125917e-38
0.079000004 -0.061000001 0.011 1.3920139e-38
0.079000004 -0.061000001 0.0099999998 2.3416614e-38
0.079000004 -0.061000001 0.0089999996 2.3509886e-38
0.079000004 -0.061000001 0.0080000004 1.769442e-38
0.079000004 -0.061000001 0.0070000002 2.175135e-38
0.079000004 -0.061000001 0.0060000001 2.3509884e-38
0.079000004 -0.061000001 0.0049999999 1.5960344e-38
0.079000004 -0.061000001 0.0040000002 2.3042436e-38
0.079000004 -0.061000001 0.003 2.3509886e-38
0.079000004 -0.061000001 0.0020000001 2.3509886e-38
0.079000004 -0.061000001 0.001 2.3509886e-38
0.079999998 -0.061000001 0.072999999 9.7802912e-39
0.079999998 -0.061000001 0.071999997 7.2967293e-39
0.079999998 -0.061000001 0.071000002 7.5711567e-39
0.079999998 -0.061000001 0.07 8.2143583e-39
0.079999998 -0.061000001 0.068999998 7.9388589e-39
0.079999998 -0.061000001 0.068000004 7.1108947e-39
0.079999998 -0.061000001 0.067000002 6.8353882e-39
0.079999998 -0.061000001 0.066 6.9283055e-39
0.079999998 -0.061000001 0.064999998 7.6629852e-39
0.079999998 -0.061000001 0.064000003 7.2956362e-39
0.079999998 -0.061000001 0.063000001 1.3522121e-38
0.079999998 -0.061000001 0.061999999 2.1148761e-38
0.079999998 -0.061000001 0.061000001 2.1331713e-38
0.079999998 -0.061000001 0.059999999 2.2066763e-38
0.079999998 -0.061000001 0.059 2.1984658e-38
0.079999998 -0.061000001 0.057999998 2.1883467e-38
0.079999998 -0.061000001 0.057 2.298946e-38
0.079999998 -0.061000001 0.056000002 2.3095306e-38
0.079999998 -0.061000001 0.055 2.2433747e-38
0.079999998 -0.061000001 0.054000001 2.2065686e-38
0.079999998 -0.061000001 0.052999999 2.1881657e-38
0.079999998 -0.061000001 0.052000001 2.2712501e-38
0.079999998 -0.061000001 0.050999999 2.20711e-38
0.079999998 -0.061000001 0.050000001 2.2250075e-38
0.079999998 -0.061000001 0.048999999 2.2158599e-38
0.079999998 -0.061000001 0.048 1.7118109e-38
0.079999998 -0.061000001 0.046999998 1.162564e-38
0.079999998 -0.061000001 0.046 1.5318486e-38
0.079999998 -0.061000001 0.045000002 2.0839064e-38
0.079999998 -0.061000001 0.044 2.350987e-38
0.079999998 -0.061000001 0.043000001 2.3509874e-38
0.079999998 -0.061000001 0.041999999 2.341733e-38
0.079999998 -0.061000001 0.041000001 2.3234009e-38
0.079999998 -0.061000001 0.039999999 2.3509879e-38
0.079999998 -0.061000001 0.039000001 2.3509886e-38
0.079999998 -0.061000001 0.037999999 2.3509886e-38
0.079999998 -0.061000001 0.037 2.3509886e-38
0.079999998 -0.061000001 0.035999998 2.3509886e-38
0.079999998 -0.061000001 0.035 2.3509886e-38
0.079999998 -0.061000001 0.034000002 2.3509886e-38
0.079999998 -0.061000001 0.033 2.3509886e-38
0.079999998 -0.061000001 0.032000002 2.3509886e-38
0.079999998 -0.061000001 0.030999999 2.3509886e-38
0.079999998 -0.061000001 0.029999999 2.3509886e-38
0.079999998 -0.061000001 0.028999999 2.3509886e-38
0.079999998 -0.061000001 0.028000001 2.3509886e-38
0.079999998 -0.061000001 0.027000001 2.3129212e-38
0.079999998 -0.061000001 0.026000001 2.3509884e-38
0.079999998 -0.061000001 0.025 2.3050708e-38
0.079999998 -0.061000001 0.024 1.531101e-38
0.079999998 -0.061000001 0.023 2.0750515e-38
0.079999998 -0.061000001 0.022 2.3509886e-38
0.079999998 -0.061000001 0.021 1.5317142e-38
0.079999998 -0.061000001 0.02 1.9813448e-38
0.079999998 -0.061000001 0.018999999 2.3509886e-38
0.079999998 -0.061000001 0.017999999 2.3509886e-38
0.079999998 -0.061000001 0.017000001 2.3509886e-38
0.079999998 -0.061000001 0.016000001 2.3509886e-38
0.079999998 -0.061000001 0.015 2.3142544e-38
0.079999998 -0.061000001 0.014 2.3041687e-38
0.079999998 -0.061000001 0.013 2.3509886e-38
0.079999998 -0.061000001 0.012 2.2304503e-38
0.079999998 -0.061000001 0.011 2.1397669e-38
0.079999998 -0.061000001 0.0099999998 2.3509886e-38
0.079999998 -0.061000001 0.0089999996 2.3509886e-38
0.079999998 -0.061000001 0.0080000004 1.8350928e-38
0.079999998 -0.061000001 0.0070000002 1.9186077e-38
0.079999998 -0.061000001 0.0060000001 2.3509884e-38
0.079999998 -0.061000001 0.0049999999 2.1669542e-38
0.079999998 -0.061000001 0.0040000002 2.3318631e-38
0.079999998 -0.061000001 0.003 2.3509886e-38
0.079999998 -0.061000001 0.0020000001 2.3509886e-38
0.079999998 -0.061000001 0.001 2.3509886e-38
0.081 -0.061000001 0.072999999 9.0484729e-39
0.081 -0.061000001 0.071999997 7.5725917e-39
0.081 -0.061000001 0.071000002 7.6658635e-39
0.081 -0.061000001 0.07 7.6658607e-39
0.081 -0.061000001 0.068999998 7.8506093e-39
0.081 -0.061000001 0.068000004 7.84881e-39
0.081 -0.061000001 0.067000002 8.3069085e-39
0.081 -0.061000001 0.066 7.5754559e-39
0.081 -0.061000001 0.064999998 8.0339173e-39
0.081 -0.061000001 0.064000003 7.8505967e-39
0.081 -0.061000001 0.063000001 1.3246252e-38
0.081 -0.061000001 0.061999999 2.1240954e-38
0.081 -0.061000001 0.061000001 2.1881651e-38
0.081 -0.061000001 0.059999999 2.133208e-38
0.081 -0.061000001 0.059 2.3191806e-38
0.081 -0.061000001 0.057999998 2.2634338e-38
0.081 -0.061000001 0.057 2.2260519e-38
0.081 -0.061000001 0.056000002 2.2538549e-38
0.081 -0.061000001 0.055 2.2716815e-38
0.081 -0.061000001 0.054000001 2.17005e-38
0.081 -0.061000001 0.052999999 2.1973498e-38
0.081 -0.061000001 0.052000001 2.2528823e-38
0.081 -0.061000001 0.050999999 2.2158606e-38
0.081 -0.061000001 0.050000001 2.2065684e-38
0.081 -0.061000001 0.048999999 2.2066405e-38
0.081 -0.061000001 0.048 2.236139e-38
0.081 -0.061000001 0.046999998 2.3509863e-38
0.081 -0.061000001 0.046 2.3322948e-38
0.081 -0.061000001 0.045000002 2.3509156e-38
0.081 -0.061000001 0.044 2.3509876e-38
0.081 -0.061000001 0.043000001 2.3509886e-38
0.081 -0.061000001 0.041999999 2.341805e-38
0.081 -0.061000001 0.041000001 2.3509886e-38
0.081 -0.061000001 0.039999999 2.3509158e-38
0.081 -0.061000001 0.039000001 2.3509881e-38
0.081 -0.061000001 0.037999999 2.3509886e-38
0.081 -0.061000001 0.037 2.3509886e-38
0.081 -0.061000001 0.035999998 2.3509886e-38
0.081 -0.061000001 0.035 2.3509886e-38
0.081 -0.061000001 0.034000002 2.3509886e-38
0.081 -0.061000001 0.033 2.3509886e-38
0.081 -0.061000001 0.032000002 2.3509886e-38
0.081 -0.061000001 0.030999999 2.3509886e-38
0.081 -0.061000001 0.029999999 2.3509886e-38
0.081 -0.061000001 0.028999999 2.3509886e-38
0.081 -0.061000001 0.028000001 2.3509527e-38
0.081 -0.061000001 0.027000001 1.3941057e-38
0.081 -0.061000001 0.026000001 2.3509883e-38
0.081 -0.061000001 0.025 2.2406409e-38
0.081 -0.061000001 0.024 2.1920267e-38
0.081 -0.061000001 0.023 2.2218086e-38
0.081 -0.061000001 0.022 2.3509886e-38
0.081 -0.061000001 0.021 2.1645172e-38
0.081 -0.061000001 0.02 2.0827622e-38
0.081 -0.061000001 0.018999999 2.3509886e-38
0.081 -0.061000001 0.017999999 2.3509886e-38
0.081 -0.061000001 0.017000001 2.3509886e-38
0.081 -0.061000001 0.016000001 2.3509886e-38
0.081 -0.061000001 0.015 2.3142544e-38
0.081 -0.061000001 0.014 2.267148e-38
0.081 -0.061000001 0.013 2.3509886e-38
0.081 -0.061000001 0.012 2.3509886e-38
0.081 -0.061000001 0.011 2.3509886e-38
0.081 -0.061000001 0.0099999998 2.3509886e-38
0.081 -0.061000001 0.0089999996 2.2954568e-38
0.081 -0.061000001 0.0080000004 1.83441e-38
0.081 -0.061000001 0.0070000002 2.0474647e-38
0.081 -0.061000001 0.0060000001 2.3509884e-38
0.081 -0.061000001 0.0049999999 1.9913948e-38
0.081 -0.061000001 0.0040000002 2.3231128e-38
0.081 -0.061000001 0.003 2.3509886e-38
0.081 -0.061000001 0.0020000001 2.3509886e-38
0.081 -0.061000001 0.001 2.3509886e-38
0.082000002 -0.061000001 0.072999999 1.0335608e-38
0.082000002 -0.061000001 0.071999997 8.3115818e-39
0.082000002 -0.061000001 0.071000002 8.9562282e-39
0.082000002 -0.061000001 0.07 9.0469875e-39
0.082000002 -0.061000001 0.068999998 8.680363e-39
0.082000002 -0.061000001 0.068000004 8.7707607e-39
0.082000002 -0.061000001 0.067000002 8.8640283e-39
0.082000002 -0.061000001 0.066 8.4963248e-39
0.082000002 -0.061000001 0.064999998 8.7711251e-39
0.082000002 -0.061000001 0.064000003 9.1355874e-39
0.082000002 -0.061000001 0.063000001 1.5176231e-38
0.082000002 -0.061000001 0.061999999 2.1974561e-38
0.082000002 -0.061000001 0.061000001 2.1515385e-38
0.082000002 -0.061000001 0.059999999 2.169871e-38
0.082000002 -0.061000001 0.059 2.3283289e-38
0.082000002 -0.061000001 0.057999998 2.309494e-38
0.082000002 -0.061000001 0.057 2.290768e-38
0.082000002 -0.061000001 0.056000002 2.3009939e-38
0.082000002 -0.061000001 0.055 2.2534246e-38
0.082000002 -0.061000001 0.054000001 2.3083085e-38
0.082000002 -0.061000001 0.052999999 2.2088382e-38
0.082000002 -0.061000001 0.052000001 2.2993398e-38
0.082000002 -0.061000001 0.050999999 2.1700144e-38
0.082000002 -0.061000001 0.050000001 2.1699066e-38
0.082000002 -0.061000001 0.048999999 2.1974573e-38
0.082000002 -0.061000001 0.048 2.337446e-38
0.082000002 -0.061000001 0.046999998 2.0196199e-38
0.082000002 -0.061000001 0.046 2.2492068e-38
0.082000002 -0.061000001 0.045000002 2.3508369e-38
0.082000002 -0.061000001 0.044 2.2765041e-38
0.082000002 -0.061000001 0.043000001 2.2953374e-38
0.082000002 -0.061000001 0.041999999 2.3508784e-38
0.082000002 -0.061000001 0.041000001 2.3508805e-38
0.082000002 -0.061000001 0.039999999 2.3509886e-38
0.082000002 -0.061000001 0.039000001 2.3509886e-38
0.082000002 -0.061000001 0.037999999 2.3509886e-38
0.082000002 -0.061000001 0.037 2.3509886e-38
0.082000002 -0.061000001 0.035999998 2.3509886e-38
0.082000002 -0.061000001 0.035 2.3509886e-38
0.082000002 -0.061000001 0.034000002 2.3509886e-38
0.082000002 -0.061000001 0.033 2.3509886e-38
0.082000002 -0.061000001 0.032000002 2.3509886e-38
0.082000002 -0.061000001 0.030999999 2.3509886e-38
0.082000002 -0.061000001 0.029999999 2.3509886e-38
0.082000002 -0.061000001 0.028999999 2.3509886e-38
0.082000002 -0.061000001 0.028000001 2.112216e-38
0.082000002 -0.061000001 0.027000001 1.7795262e-38
0.082000002 -0.061000001 0.026000001 2.3509886e-38
0.082000002 -0.061000001 0.025 2.2958514e-38
0.082000002 -0.061000001 0.024 2.2499695e-38
0.082000002 -0.061000001 0.023 2.3234379e-38
0.082000002 -0.061000001 0.022 2.3509886e-38
0.082000002 -0.061000001 0.021 2.1012741e-38
0.082000002 -0.061000001 0.02 2.129323e-38
0.082000002 -0.061000001 0.018999999 2.3509886e-38
0.082000002 -0.061000001 0.017999999 2.3509886e-38
0.082000002 -0.061000001 0.017000001 2.3509886e-38
0.082000002 -0.061000001 0.016000001 2.3509886e-38
0.082000002 -0.061000001 0.015 2.3234379e-38
0.082000002 -0.061000001 0.014 2.2392745e-38
0.082000002 -0.061000001 0.013 2.3509886e-38
0.082000002 -0.061000001 0.012 2.3509886e-38
0.082000002 -0.061000001 0.011 2.3509886e-38
0.082000002 -0.061000001 0.0099999998 2.3509886e-38
0.082000002 -0.061000001 0.0089999996 2.341805e-38
0.082000002 -0.061000001 0.0080000004 1.917453e-38
0.082000002 -0.061000001 0.0070000002 2.1754605e-38
0.082000002 -0.061000001 0.0060000001 2.3496959e-38
0.082000002 -0.061000001 0.0049999999 2.1833465e-38
0.082000002 -0.061000001 0.0040000002 2.3230758e-38
0.082000002 -0.061000001 0.003 2.3509886e-38
0.082000002 -0.061000001 0.0020000001 2.3509886e-38
0.082000002 -0.061000001 0.001 2.3509886e-38
0.082999997 -0.061000001 0.072999999 1.0060114e-38
0.082999997 -0.061000001 0.071999997 7.8491884e-39
0.082999997 -0.061000001 0.071000002 7.0172823e-39
0.082999997 -0.061000001 0.07 7.2059672e-39
0.082999997 -0.061000001 0.068999998 5.8166008e-39
0.082999997 -0.061000001 0.068000004 1.3843306e-38
0.082999997 -0.061000001 0.067000002 8.8597222e-39
0.082999997 -0.061000001 0.066 8.493455e-39
0.082999997 -0.061000001 0.064999998 8.770409e-39
0.082999997 -0.061000001 0.064000003 9.5086845e-39
0.082999997 -0.061000001 0.063000001 1.4349001e-38
0.082999997 -0.061000001 0.061999999 2.1516461e-38
0.082999997 -0.061000001 0.061000001 2.1973845e-38
0.082999997 -0.061000001 0.059999999 2.1972413e-38
0.082999997 -0.061000001 0.059 2.1790177e-38
0.082999997 -0.061000001 0.057999998 2.1422838e-38
0.082999997 -0.061000001 0.057 2.0780348e-38
0.082999997 -0.061000001 0.056000002 2.3100683e-38
0.082999997 -0.061000001 0.055 2.197602e-38
0.082999997 -0.061000001 0.054000001 2.2069652e-38
0.082999997 -0.061000001 0.052999999 2.0688517e-38
0.082999997 -0.061000001 0.052000001 2.2159671e-38
0.082999997 -0.061000001 0.050999999 2.1791608e-38
0.082999997 -0.061000001 0.050000001 2.2158237e-38
0.082999997 -0.061000001 0.048999999 2.1239883e-38
0.082999997 -0.061000001 0.048 2.144445e-38
0.082999997 -0.061000001 0.046999998 2.0283323e-38
0.082999997 -0.061000001 0.046 2.0916071e-38
0.082999997 -0.061000001 0.045000002 2.2209654e-38
0.082999997 -0.061000001 0.044 2.1104034e-38
0.082999997 -0.061000001 0.043000001 2.3413252e-38
0.082999997 -0.061000001 0.041999999 2.3509851e-38
0.082999997 -0.061000001 0.041000001 2.3509886e-38
0.082999997 -0.061000001 0.039999999 2.3509886e-38
0.082999997 -0.061000001 0.039000001 2.3509886e-38
0.082999997 -0.061000001 0.037999999 2.3509886e-38
0.082999997 -0.061000001 0.037 2.3509886e-38
0.082999997 -0.061000001 0.035999998 2.3509886e-38
0.082999997 -0.061000001 0.035 2.3509886e-38
0.082999997 -0.061000001 0.034000002 2.3509886e-38
0.082999997 -0.061000001 0.033 2.3509886e-38
0.082999997 -0.061000001 0.032000002 2.3509886e-38
0.082999997 -0.061000001 0.030999999 2.3509886e-38
0.082999997 -0.061000001 0.029999999 2.3509886e-38
0.082999997 -0.061000001 0.028999999 2.3509886e-38
0.082999997 -0.061000001 0.028000001 2.3134279e-38
0.082999997 -0.061000001 0.027000001 1.9821706e-38
0.082999997 -0.061000001 0.026000001 2.3509883e-38
0.082999997 -0.061000001 0.025 2.2773405e-38
0.082999997 -0.061000001 0.024 2.1660235e-38
0.082999997 -0.061000001 0.023 2.1391569e-38
0.082999997 -0.061000001 0.022 2.3509886e-38
0.082999997 -0.061000001 0.021 1.5874597e-38
0.082999997 -0.061000001 0.02 1.5770196e-38
0.082999997 -0.061000001 0.018999999 2.3509886e-38
0.082999997 -0.061000001 0.017999999 2.3509886e-38
0.082999997 -0.061000001 0.017000001 2.3509886e-38
0.082999997 -0.061000001 0.016000001 2.3509886e-38
0.082999997 -0.061000001 0.015 2.3142544e-38
0.082999997 -0.061000001 0.014 2.1476557e-38
0.082999997 -0.061000001 0.013 2.3509886e-38
0.082999997 -0.061000001 0.012 2.3509886e-38
0.082999997 -0.061000001 0.011 2.3509886e-38
0.082999997 -0.061000001 0.0099999998 2.3509886e-38
0.082999997 -0.061000001 0.0089999996 2.2037648e-38
0.082999997 -0.061000001 0.0080000004 1.476682e-38
0.082999997 -0.061000001 0.0070000002 2.0014038e-38
0.082999997 -0.061000001 0.0060000001 2.2038721e-38
0.082999997 -0.061000001 0.0049999999 1.6601012e-38
0.082999997 -0.061000001 0.0040000002 2.1752757e-38
0.082999997 -0.061000001 0.003 2.3509884e-38
0.082999997 -0.061000001 0.0020000001 2.3509886e-38
0.082999997 -0.061000001 0.001 2.3509886e-38
0.083999999 -0.061000001 0.072999999 5.3502837e-39
0.083999999 -0.061000001 0.071999997 2.3124816e-39
0.083999999 -0.061000001 0.071000002 2.3132047e-39
0.083999999 -0.061000001 0.07 2.0369765e-39
0.083999999 -0.061000001 0.068999998 2.0380555e-39
0.083999999 -0.061000001 0.068000004 6.8325295e-39
0.083999999 -0.061000001 0.067000002 8.0346446e-39
0.083999999 -0.061000001 0.066 8.7718411e-39
0.083999999 -0.061000001 0.064999998 9.8760139e-39
0.083999999 -0.061000001 0.064000003 9.3224912e-39
0.083999999 -0.061000001 0.063000001 1.5268428e-38
0.083999999 -0.061000001 0.061999999 2.1606865e-38
0.083999999 -0.061000001 0.061000001 2.2158239e-38
0.083999999 -0.061000001 0.059999999 2.1882731e-38
0.083999999 -0.061000001 0.059 2.2433383e-38
0.083999999 -0.061000001 0.057999998 2.1699781e-38
0.083999999 -0.061000001 0.057 2.1514313e-38
0.083999999 -0.061000001 0.056000002 2.2342633e-38
0.083999999 -0.061000001 0.055 2.1606869e-38
0.083999999 -0.061000001 0.054000001 2.1883096e-38
0.083999999 -0.061000001 0.052999999 2.1515042e-38
0.083999999 -0.061000001 0.052000001 2.1423201e-38
0.083999999 -0.061000001 0.050999999 2.1515031e-38
0.083999999 -0.061000001 0.050000001 2.0965816e-38
0.083999999 -0.061000001 0.048999999 2.1973492e-38
0.083999999 -0.061000001 0.048 1.9596576e-38
0.083999999 -0.061000001 0.046999998 2.2865136e-38
0.083999999 -0.061000001 0.046 1.9258329e-38
0.083999999 -0.061000001 0.045000002 2.1925506e-38
0.083999999 -0.061000001 0.044 2.3499673e-38
0.083999999 -0.061000001 0.043000001 2.3509451e-38
0.083999999 -0.061000001 0.041999999 2.3509884e-38
0.083999999 -0.061000001 0.041000001 2.3509886e-38
0.083999999 -0.061000001 0.039999999 2.3509886e-38
0.083999999 -0.061000001 0.039000001 2.3509886e-38
0.083999999 -0.061000001 0.037999999 2.3509886e-38
0.083999999 -0.061000001 0.037 2.3509886e-38
0.083999999 -0.061000001 0.035999998 2.3050341e-38
0.083999999 -0.061000001 0.035 2.3230044e-38
0.083999999 -0.061000001 0.034000002 2.3322623e-38
0.083999999 -0.061000001 0.033 2.3509884e-38
0.083999999 -0.061000001 0.032000002 2.3509886e-38
0.083999999 -0.061000001 0.030999999 2.3509886e-38
0.083999999 -0.061000001 0.029999999 2.3509886e-38
0.083999999 -0.061000001 0.028999999 2.3509886e-38
0.083999999 -0.061000001 0.028000001 2.0198417e-38
0.083999999 -0.061000001 0.027000001 1.8263407e-38
0.083999999 -0.061000001 0.026000001 2.3509886e-38
0.083999999 -0.061000001 0.025 2.2775202e-38
0.083999999 -0.061000001 0.024 2.220511e-38
0.083999999 -0.061000001 0.023 2.3505575e-38
0.083999999 -0.061000001 0.022 2.341805e-38
0.083999999 -0.061000001 0.021 2.0642864e-38
0.083999999 -0.061000001 0.02 2.1929633e-38
0.083999999 -0.061000001 0.018999999 2.3509886e-38
0.083999999 -0.061000001 0.017999999 2.3509886e-38
0.083999999 -0.061000001 0.017000001 2.3509886e-38
0.083999999 -0.061000001 0.016000001 2.3509886e-38
0.083999999 -0.061000001 0.015 2.3234379e-38
0.083999999 -0.061000001 0.014 2.0742978e-38
0.083999999 -0.061000001 0.013 2.3509886e-38
0.083999999 -0.061000001 0.012 2.3509886e-38
0.083999999 -0.061000001 0.011 2.3509886e-38
0.083999999 -0.061000001 0.0099999998 2.3509886e-38
0.083999999 -0.061000001 0.0089999996 2.3326215e-38
0.083999999 -0.061000001 0.0080000004 1.8330088e-38
0.083999999 -0.061000001 0.0070000002 1.8728329e-38
0.083999999 -0.061000001 0.0060000001 2.3509883e-38
0.083999999 -0.061000001 0.0049999999 1.5591559e-38
0.083999999 -0.061000001 0.0040000002 2.1575219e-38
0.083999999 -0.061000001 0.003 2.3509886e-38
0.083999999 -0.061000001 0.0020000001 2.3509886e-38
0.083999999 -0.061000001 0.001 2.3509886e-38
0.085000001 -0.061000001 0.072999999 5.1662609e-39
0.085000001 -0.061000001 0.071999997 2.1295351e-39
0.085000001 -0.061000001 0.071000002 2.4043199e-39
0.085000001 -0.061000001 0.07 2.4039597e-39
0.085000001 -0.061000001 0.068999998 2.3114012e-39
0.085000001 -0.061000001 0.068000004 7.3871284e-39
0.085000001 -0.061000001 0.067000002 8.7696943e-39
0.085000001 -0.061000001 0.066 9.4143379e-39
0.085000001 -0.061000001 0.064999998 9.1413341e-39
0.085000001 -0.061000001 0.064000003 9.9675159e-39
0.085000001 -0.061000001 0.063000001 1.7199855e-38
0.085000001 -0.061000001 0.061999999 2.16987e-38
0.085000001 -0.061000001 0.061000001 2.1975282e-38
0.085000001 -0.061000001 0.059999999 2.1698343e-38
0.085000001 -0.061000001 0.059 2.207216e-38
0.085000001 -0.061000001 0.057999998 2.1331725e-38
0.085000001 -0.061000001 0.057 2.2160404e-38
0.085000001 -0.061000001 0.056000002 2.2437714e-38
0.085000001 -0.061000001 0.055 2.2253675e-38
0.085000001 -0.061000001 0.054000001 2.3190004e-38
0.085000001 -0.061000001 0.052999999 2.2271345e-38
0.085000001 -0.061000001 0.052000001 2.3468376e-38
0.085000001 -0.061000001 0.050999999 2.2618147e-38
0.085000001 -0.061000001 0.050000001 2.1883092e-38
0.085000001 -0.061000001 0.048999999 2.1975286e-38
0.085000001 -0.061000001 0.048 1.6651362e-38
0.085000001 -0.061000001 0.046999998 1.6497172e-38
0.085000001 -0.061000001 0.046 2.0087014e-38
0.085000001 -0.061000001 0.045000002 2.2659831e-38
0.085000001 -0.061000001 0.044 2.3501818e-38
0.085000001 -0.061000001 0.043000001 2.3508379e-38
0.085000001 -0.061000001 0.041999999 2.3509884e-38
0.085000001 -0.061000001 0.041000001 2.3509886e-38
0.085000001 -0.061000001 0.039999999 2.3509886e-38
0.085000001 -0.061000001 0.039000001 2.3509881e-38
0.085000001 -0.061000001 0.037999999 2.2314584e-38
0.085000001 -0.061000001 0.037 2.3418023e-38
0.085000001 -0.061000001 0.035999998 2.3509865e-38
0.085000001 -0.061000001 0.035 2.3509874e-38
0.085000001 -0.061000001 0.034000002 2.3509886e-38
0.085000001 -0.061000001 0.033 2.3509886e-38
0.085000001 -0.061000001 0.032000002 2.3509886e-38
0.085000001 -0.061000001 0.030999999 2.3509886e-38
0.085000001 -0.061000001 0.029999999 2.3509886e-38
0.085000001 -0.061000001 0.028999999 2.3509886e-38
0.085000001 -0.061000001 0.028000001 2.3509886e-38
0.085000001 -0.061000001 0.027000001 2.3509517e-38
0.085000001 -0.061000001 0.026000001 2.3509886e-38
0.085000001 -0.061000001 0.025 2.3142544e-38
0.085000001 -0.061000001 0.024 1.4120411e-38
0.085000001 -0.061000001 0.023 2.1489503e-38
0.085000001 -0.061000001 0.022 2.3326215e-38
0.085000001 -0.061000001 0.021 1.6426349e-38
0.085000001 -0.061000001 0.02 1.679512e-38
0.085000001 -0.061000001 0.018999999 2.3509886e-38
0.085000001 -0.061000001 0.017999999 2.3509886e-38
0.085000001 -0.061000001 0.017000001 2.3509886e-38
0.085000001 -0.061000001 0.016000001 2.3509886e-38
0.085000001 -0.061000001 0.015 2.3326215e-38
0.085000001 -0.061000001 0.014 2.0561104e-38
0.085000001 -0.061000001 0.013 2.3509886e-38
0.085000001 -0.061000001 0.012 2.3509886e-38
0.085000001 -0.061000001 0.011 2.3509886e-38
0.085000001 -0.061000001 0.0099999998 2.3509886e-38
0.085000001 -0.061000001 0.0089999996 2.2126601e-38
0.085000001 -0.061000001 0.0080000004 1.4485581e-38
0.085000001 -0.061000001 0.0070000002 1.9560238e-38
0.085000001 -0.061000001 0.0060000001 2.3509886e-38
0.085000001 -0.061000001 0.0049999999 2.0651839e-38
0.085000001 -0.061000001 0.0040000002 2.073291e-38
0.085000001 -0.061000001 0.003 2.3509881e-38
0.085000001 -0.061000001 0.0020000001 2.3509886e-38
0.085000001 -0.061000001 0.001 2.3509886e-38
0.086000003 -0.061000001 0.072999999 6.2682883e-39
0.086000003 -0.061000001 0.071999997 2.3135718e-39
0.086000003 -0.061000001 0.071000002 2.313569e-39
0.086000003 -0.061000001 0.07 2.6791103e-39
0.086000003 -0.061000001 0.068999998 3.1404332e-39
0.086000003 -0.061000001 0.068000004 7.3882032e-39
0.086000003 -0.061000001 0.067000002 7.388206e-39
0.086000003 -0.061000001 0.066 9.0480693e-39
0.086000003 -0.061000001 0.064999998 9.1377468e-39
0.086000003 -0.061000001 0.064000003 8.8611543e-39
0.086000003 -0.061000001 0.063000001 1.4807818e-38
0.086000003 -0.061000001 0.061999999 2.1607581e-38
0.086000003 -0.061000001 0.061000001 2.2157516e-38
0.086000003 -0.061000001 0.059999999 2.1791263e-38
0.086000003 -0.061000001 0.059 2.3080214e-38
0.086000003 -0.061000001 0.057999998 2.3081647e-38
0.086000003 -0.061000001 0.057 2.2545732e-38
0.086000003 -0.061000001 0.056000002 2.3193579e-38
0.086000003 -0.061000001 0.055 2.262068e-38
0.086000003 -0.061000001 0.054000001 2.3099623e-38
0.086000003 -0.061000001 0.052999999 2.2627496e-38
0.086000003 -0.061000001 0.052000001 2.3467007e-38
0.086000003 -0.061000001 0.050999999 2.3078039e-38
0.086000003 -0.061000001 0.050000001 2.1699778e-38
0.086000003 -0.061000001 0.048999999 2.1974926e-38
0.086000003 -0.061000001 0.048 1.7202364e-38
0.086000003 -0.061000001 0.046999998 1.4839805e-38
0.086000003 -0.061000001 0.046 2.184341e-38
0.086000003 -0.061000001 0.045000002 2.3322126e-38
0.086000003 -0.061000001 0.044 2.3129094e-38
0.086000003 -0.061000001 0.043000001 2.313163e-38
0.086000003 -0.061000001 0.041999999 2.3506915e-38
0.086000003 -0.061000001 0.041000001 2.3509866e-38
0.086000003 -0.061000001 0.039999999 2.3509886e-38
0.086000003 -0.061000001 0.039000001 2.3509517e-38
0.086000003 -0.061000001 0.037999999 2.3509527e-38
0.086000003 -0.061000001 0.037 2.3509877e-38
0.086000003 -0.061000001 0.035999998 2.3509883e-38
0.086000003 -0.061000001 0.035 2.3509886e-38
0.086000003 -0.061000001 0.034000002 2.3509886e-38
0.086000003 -0.061000001 0.033 2.3509886e-38
0.086000003 -0.061000001 0.032000002 2.3509886e-38
0.086000003 -0.061000001 0.030999999 2.3509886e-38
0.086000003 -0.061000001 0.029999999 2.3509886e-38
0.086000003 -0.061000001 0.028999999 2.3509886e-38
0.086000003 -0.061000001 0.028000001 2.3509879e-38
0.086000003 -0.061000001 0.027000001 1.7348267e-38
0.086000003 -0.061000001 0.026000001 2.3509884e-38
0.086000003 -0.061000001 0.025 2.2672587e-38
0.086000003 -0.061000001 0.024 1.9263155e-38
0.086000003 -0.061000001 0.023 2.0288813e-38
0.086000003 -0.061000001 0.022 2.3509886e-38
0.086000003 -0.061000001 0.021 2.1559795e-38
0.086000003 -0.061000001 0.02 2.1197477e-38
0.086000003 -0.061000001 0.018999999 2.3509886e-38
0.086000003 -0.061000001 0.017999999 2.3509886e-38
0.086000003 -0.061000001 0.017000001 2.3509886e-38
0.086000003 -0.061000001 0.016000001 2.3509886e-38
0.086000003 -0.061000001 0.015 2.3509886e-38
0.086000003 -0.061000001 0.014 2.3509527e-38
0.086000003 -0.061000001 0.013 2.3509886e-38
0.086000003 -0.061000001 0.012 2.3509886e-38
0.086000003 -0.061000001 0.011 2.3509886e-38
0.086000003 -0.061000001 0.0099999998 2.3509886e-38
0.086000003 -0.061000001 0.0089999996 2.3050708e-38
0.086000003 -0.061000001 0.0080000004 1.7704487e-38
0.086000003 -0.061000001 0.0070000002 2.1489146e-38
0.086000003 -0.061000001 0.0060000001 2.3509886e-38
0.086000003 -0.061000001 0.0049999999 1.9923992e-38
0.086000003 -0.061000001 0.0040000002 2.1207534e-38
0.086000003 -0.061000001 0.003 2.3509886e-38
0.086000003 -0.061000001 0.0020000001 2.3509886e-38
0.086000003 -0.061000001 0.001 2.3509886e-38
0.086999997 -0.061000001 0.072999999 5.716548e-39
0.086999997 -0.061000001 0.071999997 2.3139403e-39
0.086999997 -0.061000001 0.071000002 2.4039555e-39
0.086999997 -0.061000001 0.07 2.1273687e-39
0.086999997 -0.061000001 0.068999998 4.8960808e-39
0.086999997 -0.061000001 0.068000004 6.6492033e-39
0.086999997 -0.061000001 0.067000002 8.3087078e-39
0.086999997 -0.061000001 0.066 9.0473434e-39
0.086999997 -0.061000001 0.064999998 8.8651101e-39
0.086999997 -0.061000001 0.064000003 1.0334852e-38
0.086999997 -0.061000001 0.063000001 1.5542856e-38
0.086999997 -0.061000001 0.061999999 2.1974926e-38
0.086999997 -0.061000001 0.061000001 2.16987e-38
0.086999997 -0.061000001 0.059999999 2.1240249e-38
0.086999997 -0.061000001 0.059 2.3379465e-38
0.086999997 -0.061000001 0.057999998 2.31908e-38
0.086999997 -0.061000001 0.057 2.3364715e-38
0.086999997 -0.061000001 0.056000002 2.3174907e-38
0.086999997 -0.061000001 0.055 2.3085961e-38
0.086999997 -0.061000001 0.054000001 2.2716098e-38
0.086999997 -0.061000001 0.052999999 2.2347324e-38
0.086999997 -0.061000001 0.052000001 2.3199365e-38
0.086999997 -0.061000001 0.050999999 2.1976386e-38
0.086999997 -0.061000001 0.050000001 2.2617424e-38
0.086999997 -0.061000001 0.048999999 2.1700141e-38
0.086999997 -0.061000001 0.048 1.8677857e-38
0.086999997 -0.061000001 0.046999998 1.7607123e-38
0.086999997 -0.061000001 0.046 2.2021686e-38
0.086999997 -0.061000001 0.045000002 2.3509055e-38
0.086999997 -0.061000001 0.044 2.0918944e-38
0.086999997 -0.061000001 0.043000001 1.9171887e-38
0.086999997 -0.061000001 0.041999999 2.2393331e-38
0.086999997 -0.061000001 0.041000001 2.3508374e-38
0.086999997 -0.061000001 0.039999999 2.3509881e-38
0.086999997 -0.061000001 0.039000001 2.3509873e-38
0.086999997 -0.061000001 0.037999999 2.3509883e-38
0.086999997 -0.061000001 0.037 2.3509886e-38
0.086999997 -0.061000001 0.035999998 2.3509886e-38
0.086999997 -0.061000001 0.035 2.3509886e-38
0.086999997 -0.061000001 0.034000002 2.3509886e-38
0.086999997 -0.061000001 0.033 2.3509886e-38
0.086999997 -0.061000001 0.032000002 2.3509886e-38
0.086999997 -0.061000001 0.030999999 2.3509886e-38
0.086999997 -0.061000001 0.029999999 2.3509886e-38
0.086999997 -0.061000001 0.028999999 2.3509886e-38
0.086999997 -0.061000001 0.028000001 2.3509886e-38
0.086999997 -0.061000001 0.027000001 2.2495749e-38
0.086999997 -0.061000001 0.026000001 2.3509881e-38
0.086999997 -0.061000001 0.025 2.2867037e-38
0.086999997 -0.061000001 0.024 1.3932376e-38
0.086999997 -0.061000001 0.023 2.1395863e-38
0.086999997 -0.061000001 0.022 2.3509886e-38
0.086999997 -0.061000001 0.021 2.1185948e-38
0.086999997 -0.061000001 0.02 2.3504492e-38
0.086999997 -0.061000001 0.018999999 2.3509886e-38
0.086999997 -0.061000001 0.017999999 2.3509886e-38
0.086999997 -0.061000001 0.017000001 2.3509886e-38
0.086999997 -0.061000001 0.016000001 2.3509886e-38
0.086999997 -0.061000001 0.015 2.3509886e-38
0.086999997 -0.061000001 0.014 2.3509886e-38
0.086999997 -0.061000001 0.013 2.3509886e-38
0.086999997 -0.061000001 0.012 2.3509886e-38
0.086999997 -0.061000001 0.011 2.3509886e-38
0.086999997 -0.061000001 0.0099999998 2.3509886e-38
0.086999997 -0.061000001 0.0089999996 2.341805e-38
0.086999997 -0.061000001 0.0080000004 2.009433e-38
0.086999997 -0.061000001 0.0070000002 1.9739944e-38
0.086999997 -0.061000001 0.0060000001 2.3509886e-38
0.086999997 -0.061000001 0.0049999999 2.3509886e-38
0.086999997 -0.061000001 0.0040000002 2.3509886e-38
0.086999997 -0.061000001 0.003 2.3509886e-38
0.086999997 -0.061000001 0.0020000001 2.3509886e-38
0.086999997 -0.061000001 0.001 2.3509886e-38
0.088 -0.061000001 0.072999999 6.7292454e-39
0.088 -0.061000001 0.071999997 2.5908733e-39
0.088 -0.061000001 0.071000002 2.4050472e-39
0.088 -0.061000001 0.07 3.8819471e-39
0.088 -0.061000001 0.068999998 7.0190578e-39
0.088 -0.061000001 0.068000004 6.0013213e-39
0.088 -0.061000001 0.067000002 8.3991069e-39
0.088 -0.061000001 0.066 9.0466329e-39
0.088 -0.061000001 0.064999998 8.8618773e-39
0.088 -0.061000001 0.064000003 8.0324796e-39
0.088 -0.061000001 0.063000001 1.526627e-38
0.088 -0.061000001 0.061999999 2.2250082e-38
0.088 -0.061000001 0.061000001 2.1422839e-38
0.088 -0.061000001 0.059999999 2.2344075e-38
0.088 -0.061000001 0.059 2.0969812e-38
0.088 -0.061000001 0.057999998 2.2252241e-38
0.088 -0.061000001 0.057 2.2990549e-38
0.088 -0.061000001 0.056000002 2.3276467e-38
0.088 -0.061000001 0.055 2.2993032e-38
0.088 -0.061000001 0.054000001 2.3368329e-38
0.088 -0.061000001 0.052999999 2.2815887e-38
0.088 -0.061000001 0.052000001 2.2165096e-38
0.088 -0.061000001 0.050999999 2.1976383e-38
0.088 -0.061000001 0.050000001 2.2158238e-38
0.088 -0.061000001 0.048999999 2.1791618e-38
0.088 -0.061000001 0.048 2.0246263e-38
0.088 -0.061000001 0.046999998 2.1300011e-38
0.088 -0.061000001 0.046 1.89893e-38
0.088 -0.061000001 0.045000002 2.3507257e-38
0.088 -0.061000001 0.044 1.3273602e-38
0.088 -0.061000001 0.043000001 1.2995551e-38
0.088 -0.061000001 0.041999999 1.6403879e-38
0.088 -0.061000001 0.041000001 2.0743532e-38
0.088 -0.061000001 0.039999999 2.2862961e-38
0.088 -0.061000001 0.039000001 1.7983506e-38
0.088 -0.061000001 0.037999999 1.5115729e-38
0.088 -0.061000001 0.037 1.9186012e-38
0.088 -0.061000001 0.035999998 2.2866314e-38
0.088 -0.061000001 0.035 2.3509886e-38
0.088 -0.061000001 0.034000002 2.3509886e-38
0.088 -0.061000001 0.033 2.3509886e-38
0.088 -0.061000001 0.032000002 2.3509886e-38
0.088 -0.061000001 0.030999999 2.3509886e-38
0.088 -0.061000001 0.029999999 2.3509886e-38
0.088 -0.061000001 0.028999999 2.3509886e-38
0.088 -0.061000001 0.028000001 2.3509881e-38
0.088 -0.061000001 0.027000001 2.1741991e-38
0.088 -0.061000001 0.026000001 2.3509886e-38
0.088 -0.061000001 0.025 2.2958873e-38
0.088 -0.061000001 0.024 1.4575292e-38
0.088 -0.061000001 0.023 2.2774125e-38
0.088 -0.061000001 0.022 2.3509886e-38
0.088 -0.061000001 0.021 2.2406423e-38
0.088 -0.061000001 0.02 2.1488786e-38
0.088 -0.061000001 0.018999999 2.3509886e-38
0.088 -0.061000001 0.017999999 2.3509886e-38
0.088 -0.061000001 0.017000001 2.3509886e-38
0.088 -0.061000001 0.016000001 2.3509886e-38
0.088 -0.061000001 0.015 2.3509886e-38
0.088 -0.061000001 0.014 2.3509886e-38
0.088 -0.061000001 0.013 2.3509886e-38
0.088 -0.061000001 0.012 2.3509886e-38
0.088 -0.061000001 0.011 2.3509886e-38
0.088 -0.061000001 0.0099999998 2.3509886e-38
0.088 -0.061000001 0.0089999996 2.3234379e-38
0.088 -0.061000001 0.0080000004 1.6691453e-38
0.088 -0.061000001 0.0070000002 1.586349e-38
0.088 -0.061000001 0.0060000001 2.3509886e-38
0.088 -0.061000001 0.0049999999 2.3509886e-38
